# .PCD v0.7 - Point Cloud Data file format
VERSION 0.7
FIELDS x y z
SIZE 4 4 4
TYPE F F F
COUNT 1 1 1
WIDTH 1389
HEIGHT 1
VIEWPOINT 0 0 0 1 0 0 0
POINTS 1389
DATA ascii
-0.5884918 0.48429596 -0.46417561
-0.6263572 0.51635331 -0.4709152
-0.6398955 0.59411675 -0.48663402
-0.65157652 0.61495042 -0.48945707
-0.71472061 0.65584368 -0.451287
-0.72287089 0.69455409 -0.488015
-0.76590049 0.75624341 -0.47257376
0.31633621 -0.96871918 -0.48070601
0.27086112 -0.92222089 -0.48767063
0.2519992 -0.88838285 -0.48607472
0.22699089 -0.84131801 -0.48173842
0.20032556 -0.80743325 -0.48572719
0.15940914 -0.75995791 -0.49784335
0.14839897 -0.69278258 -0.45215383
0.13416205 -0.66233879 -0.48192132
0.10183857 -0.58543789 -0.47156298
0.061837628 -0.5882107 -0.48740402
0.050709158 -0.517407 -0.46742103
0.01562126 -0.49143422 -0.47302866
-0.018011466 -0.41664633 -0.49876183
-0.021200955 -0.41509962 -0.45334992
-0.032754526 -0.36341506 -0.49460939
-0.091032483 -0.30146447 -0.47099814
-0.089155868 -0.26807493 -0.46042532
-0.13266796 -0.20883974 -0.47491667
-0.12894821 -0.18200138 -0.48509902
-0.21307985 -0.12326298 -0.45823294
-0.21468413 -0.072711475 -0.4671956
-0.25004837 -0.032050733 -0.47675261
-0.27402622 -0.0029089388 -0.4509241
-0.25348493 0.036706336 -0.46676278
-0.28942746 0.095409103 -0.45215201
-0.32616398 0.11046875 -0.48929986
-0.38463604 0.17164016 -0.48658958
-0.37384197 0.21983132 -0.46942851
-0.38620484 0.24644506 -0.46981204
-0.42817014 0.29066092 -0.48249194
-0.44828251 0.31978333 -0.45786107
-0.46732247 0.40142632 -0.47038889
-0.5053761 0.40259182 -0.47427329
-0.56098348 0.47796321 -0.48394296
-0.55972952 0.48690957 -0.45899659
-0.58024573 0.54148149 -0.48309541
-0.61596966 0.57661718 -0.49843425
-0.63594657 0.61491901 -0.46659648
-0.63695472 0.69998264 -0.45559815
-0.66963553 0.71321982 -0.49501082
-0.70011938 0.77966303 -0.45116895
0.33999991 -0.94568437 -0.47530845
0.29813501 -0.90797913 -0.48205677
0.27826741 -0.83624238 -0.46130744
0.26739135 -0.802921 -0.47743148
0.22828569 -0.73925889 -0.48090273
0.19558491 -0.73844528 -0.47449604
0.21261352 -0.67719746 -0.47685352
0.15492193 -0.61786765 -0.47158927
0.15145731 -0.56830066 -0.48736125
0.097261563 -0.54776859 -0.48299065
0.083763883 -0.51008242 -0.49547875
0.07531476 -0.46895251 -0.47044054
0.015031829 -0.41348428 -0.49761382
0.0025222749 -0.38772491 -0.46738863
-0.01359807 -0.30988371 -0.46406895
-0.035535097 -0.29887477 -0.48018679
-0.065935381 -0.22904834 -0.48146918
-0.10096714 -0.20135251 -0.45255589
-0.095921151 -0.16301249 -0.48790967
-0.13069811 -0.12247267 -0.49792847
-0.17518893 -0.08310841 -0.48486364
-0.18479268 -0.04775269 -0.45258391
-0.216557 0.0024116635 -0.49602628
-0.23910305 0.063072883 -0.47776625
-0.27414542 0.12005388 -0.46606484
-0.31672359 0.15032937 -0.46057424
-0.32853013 0.18795574 -0.49106631
-0.35963058 0.22744609 -0.47430748
-0.37477833 0.27122998 -0.49633884
-0.38993856 0.32452989 -0.46700555
-0.40538037 0.37248135 -0.47910592
-0.42698646 0.4137482 -0.45280755
-0.46246099 0.47196746 -0.4857499
-0.48392758 0.48195976 -0.49548435
-0.54050326 0.55013025 -0.46073601
-0.54476029 0.58139014 -0.46205389
-0.56082791 0.64637333 -0.47889578
-0.56975341 0.66726547 -0.47021034
-0.598836 0.71225554 -0.47256386
-0.6284743 0.76338422 -0.47617641
-0.64775729 0.81048542 -0.49701113
0.38790357 -0.92385924 -0.47879916
0.38253418 -0.86594689 -0.46688974
0.32779133 -0.83969557 -0.45611647
0.29735011 -0.75936824 -0.45350972
0.27374476 -0.72518116 -0.46968594
0.26894242 -0.6693157 -0.49012092
0.20501871 -0.64110047 -0.47084734
0.20174666 -0.62281853 -0.47633326
0.15648496 -0.56470615 -0.49680492
0.12665132 -0.50769991 -0.46517658
0.12175125 -0.4588609 -0.4924942
0.10054948 -0.42423195 -0.45579183
0.071279623 -0.36508173 -0.48438331
0.033604831 -0.34593719 -0.47254506
0.027070291 -0.30718148 -0.48902422
0.025295794 -0.26016682 -0.45601594
-0.014498107 -0.23625097 -0.49832493
-0.054357961 -0.18457061 -0.47013912
-0.056832023 -0.14635983 -0.472078
-0.092393726 -0.10722101 -0.46772644
-0.1221747 -0.030193271 -0.47620714
-0.14084467 0.014635152 -0.46344537
-0.15771109 0.051773373 -0.4904986
-0.19486049 0.11621504 -0.4961172
-0.22747791 0.14750941 -0.45427415
-0.24856901 0.18244119 -0.49675339
-0.27906847 0.19870768 -0.4973909
-0.26881182 0.24981555 -0.48873091
-0.33970216 0.30801767 -0.47361439
-0.31762144 0.34476227 -0.46513763
-0.39066151 0.38395894 -0.47225806
-0.41397315 0.45273221 -0.46360618
-0.43168521 0.46398678 -0.4921701
-0.42196921 0.51638091 -0.45045605
-0.48213196 0.54292601 -0.46407998
-0.50187624 0.60203218 -0.47292763
-0.5137018 0.6407696 -0.46974283
-0.53448057 0.7238971 -0.4650757
-0.59731513 0.74677169 -0.48548725
-0.59722745 0.75575531 -0.49369168
-0.62810361 0.8022607 -0.49660173
0.45062453 -0.88384634 -0.46171758
0.40098345 -0.81765598 -0.45511615
0.35643986 -0.8035174 -0.4551982
0.3695823 -0.7556721 -0.48856217
0.34180546 -0.70168686 -0.48780677
0.29367161 -0.67182505 -0.46519762
0.26996917 -0.59789979 -0.47146824
0.23516077 -0.58552176 -0.46234983
0.23477685 -0.52725899 -0.47832969
0.19907522 -0.46880093 -0.45595655
0.17299041 -0.46376339 -0.46837455
0.15888791 -0.38123256 -0.49864239
0.12060861 -0.35982776 -0.469291
0.10826367 -0.29847297 -0.49165043
0.08886081 -0.27055496 -0.4586302
0.046047859 -0.24706762 -0.47162047
0.0055013672 -0.18001777 -0.49242669
-0.0038328096 -0.15419322 -0.46893248
-0.032743961 -0.078651711 -0.45717451
-0.047316913 -0.035197638 -0.4593299
-0.069568455 0.014977045 -0.49729371
-0.10980428 0.0084985718 -0.46647859
-0.14442791 0.07455425 -0.47785616
-0.13970898 0.12393819 -0.46594912
-0.16130303 0.1568677 -0.46868348
-0.22044681 0.18529429 -0.49399054
-0.21611635 0.23801553 -0.48290312
-0.227707 0.27822369 -0.45493239
-0.26724276 0.33356524 -0.49121746
-0.27318698 0.37202734 -0.49831057
-0.34206867 0.42947721 -0.46632072
-0.34843683 0.45636594 -0.4512271
-0.39273453 0.51672137 -0.49335945
-0.40909177 0.52470124 -0.48233125
-0.39537111 0.58337176 -0.45402133
-0.4477365 0.61991394 -0.47794533
-0.47994685 0.66552502 -0.48641217
-0.47829571 0.7198723 -0.47527218
-0.54304367 0.76670963 -0.47214517
-0.55405867 0.82612193 -0.45841095
-0.59225589 0.82765913 -0.46714374
0.48420674 -0.86174655 -0.47947165
0.46789163 -0.82361478 -0.472377
0.43518868 -0.76670396 -0.45138499
0.41836897 -0.73319638 -0.48900512
0.37405372 -0.69704872 -0.46222171
0.36693373 -0.64782596 -0.45312068
0.28906286 -0.59728515 -0.47794512
0.31196058 -0.5629518 -0.49996457
0.28197157 -0.49122882 -0.45299235
0.22135295 -0.4534134 -0.45006379
0.22464769 -0.39072537 -0.46534821
0.20409751 -0.36122203 -0.4737671
0.1521835 -0.32645833 -0.4967947
0.15327558 -0.29004881 -0.49302733
0.11100038 -0.23795956 -0.47299191
0.075602531 -0.19962987 -0.45204562
0.081699193 -0.18136621 -0.45264933
0.0435788 -0.11160143 -0.45194814
0.038901441 -0.079495519 -0.4938657
-0.009433914 -0.016211472 -0.48290241
-0.0029121104 0.0028043562 -0.48843783
-0.075512007 0.066835001 -0.4986743
-0.072853789 0.093823239 -0.46374673
-0.12164918 0.14256498 -0.46433794
-0.12692265 0.19950838 -0.47351867
-0.17004682 0.23406769 -0.48837793
-0.18358701 0.26833746 -0.45464799
-0.20802632 0.29117778 -0.49448094
-0.21822609 0.36320117 -0.49124771
-0.25801519 0.41476923 -0.4711557
-0.2882044 0.44511789 -0.46969682
-0.30779558 0.47839731 -0.48304936
-0.32750827 0.50745547 -0.46349627
-0.38887492 0.58118266 -0.49121073
-0.36239049 0.61555862 -0.46951342
-0.41922915 0.67985731 -0.48077881
-0.42627853 0.70174986 -0.46113679
-0.45558035 0.77034122 -0.45662844
-0.50345594 0.79466778 -0.49493667
-0.52042812 0.84431571 -0.46534318
-0.52999389 0.86042333 -0.46364522
0.48624071 -0.81988615 -0.46807134
0.47487172 -0.79284871 -0.48438999
0.47591037 -0.73272681 -0.49202132
0.43300766 -0.69473308 -0.46798
0.41431138 -0.65011007 -0.45408219
0.36246088 -0.61168319 -0.47910458
0.35487562 -0.58209538 -0.49184504
0.30474994 -0.51981592 -0.4881846
0.31397361 -0.45413935 -0.49559841
0.30694807 -0.44071922 -0.46046066
0.26288468 -0.41777104 -0.47586417
0.22688223 -0.33793762 -0.49730808
0.2145285 -0.29896128 -0.49373585
0.20056278 -0.26515687 -0.45442992
0.16415405 -0.2431369 -0.49725389
0.11569747 -0.16990767 -0.46100643
0.10593295 -0.14164954 -0.46905529
0.097512111 -0.11397851 -0.4560892
0.049018331 -0.030110307 -0.46608233
0.021918038 -0.036047924 -0.48243383
0.010909934 0.0371667 -0.48413965
-0.0024024025 0.07894285 -0.45149937
-0.048544377 0.12757705 -0.47736701
-0.067487516 0.14421865 -0.45244312
-0.11169648 0.2188565 -0.4958711
-0.12250351 0.25792477 -0.46334147
-0.14900842 0.29261011 -0.46962169
-0.14858752 0.35675058 -0.480535
-0.21043353 0.39129037 -0.47167072
-0.19835451 0.43288705 -0.48070002
-0.23104134 0.48596367 -0.47628212
-0.24154648 0.50963575 -0.45479366
-0.2696012 0.54186869 -0.47479022
-0.32705626 0.56981224 -0.47137955
-0.33917958 0.61300129 -0.45618373
-0.38897574 0.69355857 -0.49896598
-0.39009529 0.74428058 -0.48478767
-0.42199856 0.7500059 -0.45239589
-0.42650166 0.83745867 -0.47597986
-0.44849998 0.85848206 -0.47869751
-0.49716672 0.88499433 -0.49461415
0.55192959 -0.78794098 -0.45707422
0.52077568 -0.74596262 -0.46392012
0.51700044 -0.70576483 -0.45782068
0.47914898 -0.67684847 -0.49370202
0.45769393 -0.64389509 -0.49673331
0.41574073 -0.59961355 -0.47441036
0.40008062 -0.53340441 -0.49449584
0.38717756 -0.5071699 -0.48173782
0.35129964 -0.48206231 -0.47099099
0.30951086 -0.43125176 -0.45476344
0.29398856 -0.36769307 -0.49728936
0.28165823 -0.34200627 -0.45611307
0.23129791 -0.2762019 -0.46454525
0.20573872 -0.24732311 -0.48008898
0.17624258 -0.19334295 -0.49353904
0.18747106 -0.17593715 -0.49889925
0.16817208 -0.11775857 -0.4721925
0.12664151 -0.051916119 -0.48232085
0.082881331 -0.032942228 -0.48717192
0.083855294 -0.0061963005 -0.47572923
0.071632385 0.041584458 -0.48612818
0.029067647 0.11545889 -0.46724442
-0.022101883 0.15131113 -0.47380015
-0.0077465773 0.17138207 -0.45653486
-0.059142489 0.21256836 -0.47655326
-0.084731996 0.28078428 -0.49123704
-0.094561473 0.32391992 -0.48975414
-0.10523741 0.37911201 -0.4633384
-0.14493519 0.42095011 -0.48425856
-0.1672198 0.46953535 -0.47136804
-0.20256469 0.46865457 -0.48793471
-0.22252825 0.54094535 -0.49027339
-0.22288549 0.57287228 -0.4590666
-0.29257792 0.61570394 -0.47175816
-0.32783052 0.6680479 -0.45277342
-0.31276307 0.73120522 -0.48981181
-0.3519541 0.7495352 -0.45632753
-0.39147946 0.794411 -0.46833169
-0.42051667 0.85259283 -0.49157777
-0.44705349 0.88857609 -0.4817768
-0.4480443 0.90869957 -0.48374242
0.60364807 -0.7830801 -0.48238963
0.57910407 -0.72668701 -0.49179661
0.54877609 -0.68265599 -0.46153259
0.51573741 -0.62895179 -0.45893234
0.48203024 -0.62360471 -0.45348516
0.45519271 -0.57722682 -0.45702586
0.43351263 -0.51682609 -0.49097049
0.43351379 -0.49336687 -0.46294311
0.36831439 -0.43666071 -0.49416414
0.36100736 -0.36977428 -0.45995441
0.35162801 -0.3356353 -0.46433553
0.3264955 -0.31199604 -0.4657037
0.30273864 -0.23194639 -0.46133628
0.28397352 -0.22908129 -0.45904341
0.25374874 -0.18899834 -0.46901834
0.22309314 -0.11126109 -0.48892099
0.18531138 -0.099906787 -0.46287581
0.188559 -0.047506411 -0.48000193
0.16801119 -0.015864359 -0.45631364
0.095609702 0.054503683 -0.49785686
0.091600634 0.089787759 -0.46392748
0.067445025 0.10835768 -0.47900581
0.065610975 0.16327155 -0.47224113
0.027784005 0.24032228 -0.48294929
-0.014153615 0.23461132 -0.47988704
-0.0044835806 0.28730446 -0.4987765
-0.039897002 0.3256723 -0.49780393
-0.079678707 0.39098942 -0.45333168
-0.090437919 0.44443476 -0.47730458
-0.12505615 0.47672126 -0.4678067
-0.14596803 0.54630333 -0.48380885
-0.18339404 0.53957355 -0.45575479
-0.21356088 0.57233965 -0.46593419
-0.20572191 0.63752478 -0.49837041
-0.26029259 0.68197286 -0.49101779
-0.26874149 0.72494054 -0.49016023
-0.31536728 0.7876454 -0.45999309
-0.33299124 0.79785657 -0.49127933
-0.37065983 0.86067009 -0.45164993
-0.35953325 0.91683549 -0.46692178
-0.41696623 0.92637211 -0.46672025
0.66100276 -0.75353134 -0.48099017
0.64642513 -0.72173208 -0.45974919
0.57334542 -0.6703288 -0.45465568
0.56300735 -0.60627198 -0.45270735
0.54595089 -0.58736777 -0.47196069
0.50920463 -0.57197315 -0.46833536
0.47010502 -0.50155956 -0.48926795
0.47665212 -0.42762366 -0.48621827
0.44025633 -0.42378485 -0.48409623
0.43275559 -0.37011993 -0.48754081
0.38570985 -0.33841667 -0.47859111
0.35609448 -0.30291545 -0.4685334
0.3418622 -0.23537484 -0.46711671
0.29404378 -0.19479699 -0.45881787
0.28022581 -0.14999127 -0.45216048
0.27524579 -0.11568964 -0.49673358
0.25634271 -0.069171399 -0.48048863
0.21716604 0.00094782852 -0.45528743
0.17915483 0.026893128 -0.46461973
0.18201388 0.067307159 -0.48612842
0.15949219 0.1114672 -0.46247363
0.12900653 0.15729855 -0.48419017
0.082775205 0.19669521 -0.4813531
0.079335146 0.24460033 -0.47106823
0.030230604 0.2856698 -0.49636438
0.029161036 0.33093089 -0.45807621
-0.0038016289 0.3672373 -0.48476079
-0.024690136 0.4133679 -0.45049149
-0.068256274 0.42832449 -0.476156
-0.096368581 0.48085916 -0.46373188
-0.12822197 0.52371526 -0.45577922
-0.11828059 0.57893825 -0.49099791
-0.15203673 0.63169974 -0.49228048
-0.19395326 0.69482857 -0.46144497
-0.21360917 0.72024816 -0.45542961
-0.24284944 0.76776022 -0.47042298
-0.26017714 0.80035794 -0.4696393
-0.28387219 0.83776802 -0.46182364
-0.31726477 0.90214014 -0.46015427
-0.33270478 0.92067897 -0.48523074
-0.36751977 0.96583122 -0.4825924
0.65450269 -0.72624892 -0.48982817
0.64447176 -0.70692599 -0.48966599
0.64325565 -0.65036684 -0.49534363
0.60967433 -0.62083471 -0.46366262
0.57219821 -0.54222959 -0.47924843
0.54297155 -0.53526169 -0.49607205
0.55896246 -0.48473686 -0.47267586
0.4886865 -0.4270958 -0.49868554
0.4786225 -0.38942331 -0.47895479
0.45590284 -0.36530861 -0.45400417
0.43549442 -0.28458878 -0.47025523
0.41251811 -0.26563776 -0.49609628
0.37988356 -0.21195094 -0.45396298
0.37149015 -0.17683478 -0.46961439
0.34578514 -0.12254819 -0.45797417
0.29420784 -0.09850315 -0.4591693
0.30567908 -0.040062599 -0.48752654
0.24860965 0.020313302 -0.45979339
0.22222991 0.042269509 -0.48085186
0.19344276 0.09521731 -0.4569037
0.20780686 0.12329101 -0.45114771
0.17459051 0.17067605 -0.45495602
0.14111048 0.22373179 -0.46631077
0.10186265 0.2705051 -0.4923093
0.05559025 0.31856441 -0.45376387
0.066141814 0.37306449 -0.47556853
0.032959417 0.38894188 -0.47996482
-0.0025244951 0.41703019 -0.45372877
0.0011148751 0.46284613 -0.47246259
-0.053967893 0.51211399 -0.48379695
-0.063763559 0.5434339 -0.48440191
-0.1105193 0.60587871 -0.46353155
-0.11704685 0.65308779 -0.46374577
-0.14914918 0.6921404 -0.48816165
-0.18677789 0.72648472 -0.48786917
-0.20583576 0.7750631 -0.48378727
-0.23105803 0.80559939 -0.46729633
-0.22383474 0.87070084 -0.46518201
-0.27078348 0.90215039 -0.4890548
-0.29571521 0.97021705 -0.4856081
-0.30128297 0.99599504 -0.48214686
0.71880805 -0.71902192 -0.46614602
0.68063313 -0.67398959 -0.48050168
0.64803785 -0.61475909 -0.49720773
0.64587718 -0.59366041 -0.48975357
0.61955541 -0.5291087 -0.48578554
0.58745611 -0.48766878 -0.46717736
0.59652799 -0.43825883 -0.46130225
0.55426276 -0.39382413 -0.47836947
0.52931696 -0.34144574 -0.46265918
0.51464117 -0.30412254 -0.45093599
0.47511339 -0.24561489 -0.48037559
0.43900561 -0.23120879 -0.47185883
0.4233464 -0.20851415 -0.4854899
0.41205248 -0.16513039 -0.48957369
0.35913688 -0.087312356 -0.49291021
0.35887375 -0.057719305 -0.4704434
0.31792289 -0.035351746 -0.45854956
0.31041494 0.048690762 -0.48744747
0.24887875 0.078816392 -0.45896837
0.26411352 0.10786328 -0.49060065
0.20266759 0.15966356 -0.46686122
0.19155566 0.22344223 -0.48058844
0.20111126 0.23312154 -0.46883738
0.15745953 0.28306699 -0.45740834
0.12824608 0.30560803 -0.47828117
0.086847275 0.35904077 -0.4949114
0.099849418 0.4148317 -0.49969226
0.028824568 0.46099657 -0.46281072
0.026195362 0.48843461 -0.48475081
-0.012724191 0.54968703 -0.47898811
-0.0054650009 0.60158032 -0.45534632
-0.047265381 0.6653688 -0.46100375
-0.08762455 0.65905851 -0.49351907
-0.1245821 0.73529869 -0.4627893
-0.1296169 0.73352724 -0.46569207
-0.17465794 0.81882036 -0.49892023
-0.17990887 0.82579291 -0.45577922
-0.18059459 0.87837011 -0.47274038
-0.23022702 0.93303347 -0.4880847
-0.25541022 1.0063481 -0.4860076
-0.27062875 1.0534025 -0.46027443
0.75192708 -0.66859764 -0.46607888
0.74486256 -0.61212927 -0.45817447
0.711218 -0.61007029 -0.47850645
0.69998014 -0.53812653 -0.4667753
0.66129118 -0.52526772 -0.45363703
0.63440204 -0.46507937 -0.45456818
0.63754249 -0.43834302 -0.48396984
0.61192453 -0.39024857 -0.48956153
0.55494761 -0.32483891 -0.4930501
0.52889061 -0.29424214 -0.49501789
0.5166719 -0.24328242 -0.49169284
0.48279682 -0.22584713 -0.46004692
0.47228181 -0.13707778 -0.49678576
0.44436121 -0.13840491 -0.48592055
0.41445777 -0.10673132 -0.46257859
0.39764518 -0.039154526 -0.45057592
0.37710229 0.029385014 -0.49678293
0.32489038 0.068345308 -0.46997964
0.31500322 0.11152745 -0.48210558
0.2748383 0.13511941 -0.47103354
0.28072754 0.21232902 -0.46465868
0.26339665 0.21276122 -0.4878515
0.20341721 0.25270012 -0.45094988
0.20585428 0.29799393 -0.49662137
0.16199994 0.34816808 -0.46656129
0.14233629 0.37721744 -0.47555134
0.12409808 0.46459651 -0.49507114
0.086099923 0.48865533 -0.4741011
0.088162214 0.5182423 -0.46092626
0.066171899 0.57629639 -0.48961848
0.025787026 0.61429691 -0.4850494
0.012510568 0.64435905 -0.46208134
-0.018211335 0.69229817 -0.48412189
-0.045353204 0.73029202 -0.4502331
-0.10679227 0.78748769 -0.45679834
-0.11373129 0.80504507 -0.49783459
-0.13950378 0.87157476 -0.46208459
-0.15916416 0.92034 -0.47566009
-0.17262751 0.94914168 -0.47491676
-0.2161864 1.0105115 -0.45596391
-0.2577934 1.0488386 -0.47845316
0.80739105 -0.65676522 -0.45463228
0.81400454 -0.62155491 -0.48338014
0.74144578 -0.56608915 -0.45267066
0.75405562 -0.54031879 -0.48586285
0.71667534 -0.5025143 -0.48553875
0.71361208 -0.44980159 -0.47985473
0.65302622 -0.41161379 -0.47912574
0.62910986 -0.37042648 -0.48804215
0.61366427 -0.2926839 -0.48801434
0.55906415 -0.25691366 -0.47965428
0.54674733 -0.21644796 -0.49225423
0.55031013 -0.16982123 -0.45367324
0.51640588 -0.11538685 -0.47780639
0.48644757 -0.06580095 -0.4834936
0.45445365 -0.043478142 -0.48477796
0.44559309 -0.017179567 -0.45568228
0.43766129 0.038031008 -0.48885596
0.40528888 0.083629072 -0.47438315
0.35210669 0.11258574 -0.48649877
0.34272847 0.16429807 -0.46936566
0.3375864 0.21505684 -0.45444849
0.3056798 0.26599824 -0.47832122
0.27096769 0.2903038 -0.49604273
0.22240746 0.33490419 -0.4589259
0.24036735 0.37348869 -0.47683448
0.19828409 0.42615592 -0.48708874
0.14531749 0.45874882 -0.46738818
0.11229625 0.52623528 -0.4711926
0.11300784 0.57207197 -0.47857612
0.06678097 0.59597623 -0.46633443
0.073114127 0.63223714 -0.46274728
0.024588287 0.68628204 -0.49895743
0.01590842 0.72281343 -0.45309794
-0.0087775886 0.78043717 -0.49747998
-0.040372998 0.8338204 -0.46486714
-0.06309095 0.87930679 -0.46684068
-0.082024395 0.88003665 -0.46439388
-0.11473674 0.94547766 -0.4791564
-0.1468246 0.99065655 -0.47826621
-0.18448082 1.0301539 -0.47298351
-0.19703764 1.0639642 -0.45104983
0.84639812 -0.60970193 -0.46358392
0.81880593 -0.58926207 -0.48307833
0.78180236 -0.5303269 -0.49904236
0.79093516 -0.49104285 -0.46025392
0.73521817 -0.46277213 -0.47551313
0.73595035 -0.39355832 -0.47759536
0.67888218 -0.36838213 -0.45609075
0.67036897 -0.34844676 -0.47433659
0.67059684 -0.26431674 -0.49524763
0.61458993 -0.23968625 -0.473405
0.59407067 -0.21229652 -0.48683262
0.59537005 -0.151035 -0.46645698
0.54489779 -0.090537935 -0.46498856
0.55521399 -0.067976624 -0.4711864
0.49749801 -0.054550007 -0.45799196
0.48688546 -0.0019278617 -0.49095777
0.43471619 0.077526204 -0.45618474
0.4267391 0.11290479 -0.45573589
0.38139498 0.14215526 -0.4810513
0.37732372 0.19308153 -0.49523595
0.35832947 0.26275879 -0.4586466
0.33642992 0.27929744 -0.49219984
0.29852089 0.31082091 -0.48705807
0.29032442 0.38539389 -0.47304931
0.26449281 0.41503426 -0.4622896
0.21653321 0.4691987 -0.49081275
0.22822824 0.49256715 -0.47852907
0.16513595 0.54248732 -0.47352454
0.14579023 0.57837451 -0.48197356
0.13345078 0.61037105 -0.454716
0.095425397 0.65006161 -0.49249896
0.096877187 0.69718075 -0.48556089
0.07287541 0.74963188 -0.46305722
0.031532079 0.78120321 -0.45970413
-0.00023058057 0.83927214 -0.45520815
-0.017163068 0.88873369 -0.48844293
-0.039934009 0.9065904 -0.49304545
-0.068858266 0.98373044 -0.45099309
-0.10510466 0.98442125 -0.45228755
-0.14013219 1.0615027 -0.49953073
-0.1531789 1.1146622 -0.4760246
0.90823233 -0.62497026 -0.4765735
0.88135934 -0.53565735 -0.49881554
0.85621178 -0.54128754 -0.4727931
0.83526659 -0.45889679 -0.48552084
0.77558291 -0.43544394 -0.47452921
0.75726402 -0.40070772 -0.47791883
0.77563578 -0.35785258 -0.46927977
0.72832465 -0.32327795 -0.4725557
0.71460307 -0.27704149 -0.49179101
0.67507583 -0.22229232 -0.46894947
0.64890677 -0.17070377 -0.45623946
0.61327195 -0.12749292 -0.47729424
0.6232124 -0.10067299 -0.49369875
0.58166492 -0.03801138 -0.45897645
0.56717277 0.007575911 -0.49454579
0.53930807 0.05933154 -0.47003523
0.46918261 0.095436521 -0.47943839
0.47287652 0.14095426 -0.49155158
0.42432553 0.17508891 -0.45950267
0.41260713 0.21730775 -0.49548137
0.42093092 0.2607331 -0.46890897
0.38631025 0.30470875 -0.45399392
0.36147976 0.33865452 -0.47553656
0.31970569 0.36320025 -0.45733264
0.30924755 0.42809981 -0.45248693
0.25343752 0.46250096 -0.45658413
0.24671148 0.53296369 -0.47042587
0.21146527 0.53924024 -0.49989384
0.20435277 0.61289394 -0.49217242
0.18858315 0.67319518 -0.45243293
0.135423 0.68674576 -0.49154383
0.10722038 0.73889041 -0.4667477
0.0937168 0.76329666 -0.49186167
0.069250166 0.82666618 -0.45467812
0.049723029 0.83895195 -0.4868511
0.031020999 0.93265957 -0.45635319
-0.0049084425 0.94824374 -0.49477106
-0.031941682 0.97424614 -0.45912847
-0.051995724 1.0263662 -0.45627332
-0.067001313 1.0929101 -0.45104504
-0.11878541 1.1315536 -0.48207861
0.91446221 -0.57549334 -0.4872911
0.92916858 -0.51931417 -0.47760239
0.89052522 -0.50956339 -0.46861067
0.85866696 -0.43187326 -0.49105763
0.83851445 -0.39000893 -0.4840624
0.80244112 -0.3666712 -0.49159473
0.78966379 -0.35083488 -0.46097603
0.74868309 -0.26451406 -0.47224179
0.74951935 -0.21248096 -0.46662223
0.72643149 -0.17779145 -0.49877959
0.69914901 -0.15224749 -0.47940147
0.67840731 -0.12584904 -0.47669739
0.63207167 -0.094545104 -0.47417071
0.63062513 -0.030574527 -0.47109836
0.58768284 0.010140412 -0.48214647
0.55998403 0.073645771 -0.49316835
0.53316891 0.094189495 -0.47026157
0.52515924 0.166535 -0.49823487
0.49195725 0.18412119 -0.49466977
0.47645879 0.27437609 -0.4776527
0.44138995 0.26365766 -0.47038287
0.44318685 0.3210007 -0.49843097
0.39245504 0.34875336 -0.45910543
0.34598619 0.42581993 -0.46201625
0.32032737 0.46774516 -0.45337328
0.31217855 0.48163295 -0.46633506
0.30021521 0.56701213 -0.45476478
0.28924975 0.5938977 -0.45628425
0.25780761 0.6334579 -0.45242876
0.24111903 0.6760658 -0.47815523
0.20971122 0.70781034 -0.45922786
0.1672121 0.74136227 -0.46594453
0.11779174 0.81475514 -0.46078265
0.14402974 0.84527212 -0.47004586
0.074294537 0.90596759 -0.48768613
0.052247733 0.94990605 -0.49794838
0.044574499 0.96645957 -0.47129178
0.00085607171 1.0017112 -0.45677435
-0.010889322 1.0579166 -0.48999766
-0.049316436 1.0946994 -0.49311042
-0.072771817 1.1266559 -0.4720732
0.075536907 -1.1085328 0.543387
0.053606868 -1.0218959 0.54752195
0.010068655 -0.98296791 0.51923901
0.00086462498 -0.94665176 0.54121482
-0.023534149 -0.9057256 0.5166778
-0.057878822 -0.85009658 0.52222657
-0.095748574 -0.80759412 0.54669702
-0.076073498 -0.77196932 0.52738178
-0.10965037 -0.74177349 0.51375049
-0.13632247 -0.71217698 0.51197588
-0.1511213 -0.64418894 0.52669853
-0.22287317 -0.60954094 0.50367838
-0.20788315 -0.57918233 0.53754365
-0.26471332 -0.50032085 0.53241551
-0.26287702 -0.47191668 0.54286605
-0.32486007 -0.41896912 0.5168165
-0.31534529 -0.37785986 0.50730205
-0.3424038 -0.35205278 0.50506192
-0.39680696 -0.30983159 0.53472757
-0.41138867 -0.23989652 0.53846067
-0.42616999 -0.1889472 0.5368377
-0.4314748 -0.18129592 0.5221343
-0.4902961 -0.11524128 0.52873248
-0.50615942 -0.092471249 0.52802843
-0.50596225 -0.040275238 0.5407722
-0.53273582 -0.00019667552 0.50421965
-0.56730837 0.028775383 0.53369796
-0.58054018 0.10333556 0.54553491
-0.64835644 0.13642508 0.5009746
-0.65546644 0.14840467 0.51015377
-0.69512403 0.22631775 0.52245688
-0.6938765 0.26533675 0.53460085
-0.70089352 0.31302211 0.53586739
-0.75870389 0.36910108 0.51561093
-0.78397197 0.36325303 0.53184372
-0.81935382 0.44841892 0.53162479
-0.83187258 0.4678379 0.54747039
-0.8764571 0.52756327 0.52632517
-0.88939804 0.55994743 0.53669757
-0.90283751 0.58580762 0.52085048
-0.9297334 0.6208595 0.51570565
0.12917635 -1.0599846 0.52833354
0.090257436 -1.0164342 0.51419586
0.083149493 -0.97310048 0.52925152
0.059542537 -0.93130267 0.54723233
0.037676632 -0.89693928 0.53384763
-0.0040445626 -0.8650412 0.52980798
-0.033097029 -0.77956927 0.50455028
-0.04540503 -0.74314088 0.52786195
-0.078740895 -0.73618698 0.53402406
-0.10384318 -0.6532011 0.54244941
-0.1260583 -0.64635044 0.50293905
-0.15592021 -0.59386176 0.51290256
-0.18723688 -0.5450055 0.51577616
-0.22338115 -0.48248541 0.54832941
-0.22801124 -0.47055086 0.52790111
-0.25712115 -0.43290955 0.54466969
-0.28014821 -0.35678953 0.52626026
-0.3132416 -0.31763342 0.51780444
-0.3356556 -0.27193099 0.51860583
-0.35070321 -0.2192551 0.53658503
-0.39167762 -0.1708149 0.53450489
-0.41910255 -0.16949761 0.52121806
-0.42706448 -0.13057512 0.53811389
-0.43926376 -0.068792351 0.53904462
-0.48794729 -0.018165326 0.50301576
-0.5293681 0.019221984 0.50037819
-0.53086388 0.097013883 0.53377324
-0.57531601 0.11664127 0.5411669
-0.57937628 0.14821663 0.50283867
-0.59989423 0.18517256 0.50550222
-0.65466356 0.24448626 0.51024055
-0.65967226 0.28793022 0.51485515
-0.65870881 0.33320686 0.51256251
-0.69450504 0.35116163 0.52156126
-0.74924803 0.41605836 0.51300246
-0.7423296 0.45325926 0.50034356
-0.75231087 0.493974 0.50855106
-0.80595613 0.54201955 0.53887683
-0.85431683 0.59314632 0.51196688
-0.85632491 0.64633709 0.51824379
-0.8935656 0.69003993 0.53364903
0.15076438 -1.0360389 0.50330597
0.13580754 -0.9765749 0.50842285
0.12062466 -0.93224829 0.54491627
0.072974026 -0.89509118 0.50955713
0.0898498 -0.86093605 0.52678668
0.040040195 -0.7874952 0.52961999
0.035258681 -0.76325101 0.52610505
-0.0090222955 -0.70695752 0.51336598
-0.017881364 -0.67922592 0.54656142
-0.056316912 -0.64117801 0.52577043
-0.085594863 -0.57582921 0.54693979
-0.12736832 -0.54634559 0.52591282
-0.1164991 -0.50517839 0.52234787
-0.18340112 -0.46188745 0.50833058
-0.16013667 -0.42385703 0.51848197
-0.20024663 -0.39442834 0.53568417
-0.21598533 -0.34358588 0.52935284
-0.28342515 -0.281322 0.5014528
-0.27656528 -0.27206194 0.51267612
-0.31248072 -0.19898856 0.51963043
-0.31336242 -0.16579115 0.53085375
-0.36521143 -0.13450041 0.50272685
-0.39500907 -0.06677302 0.52037275
-0.40951639 -0.058383066 0.52839869
-0.43183324 0.0071531236 0.5439508
-0.46706617 0.050959609 0.50211471
-0.49402601 0.085625209 0.54485041
-0.53573549 0.14069745 0.53789216
-0.51590168 0.17114922 0.52994841
-0.54650533 0.23626141 0.53544176
-0.59444845 0.25958562 0.52738285
-0.62833816 0.32957742 0.51369184
-0.64003921 0.35692173 0.5342387
-0.65329432 0.40108952 0.52424347
-0.67167312 0.43802404 0.51057112
-0.71733963 0.46621555 0.5432381
-0.76641947 0.53726137 0.53543353
-0.76591718 0.58869952 0.50154448
-0.77071625 0.61382312 0.53714216
-0.8114478 0.63451052 0.54154974
-0.84619999 0.71774882 0.54233164
0.21675032 -0.98085362 0.51956636
0.18686384 -0.98588288 0.51360476
0.15305808 -0.94362795 0.50147122
0.15000877 -0.89068753 0.52775657
0.12177312 -0.85296541 0.50788707
0.066557139 -0.77367717 0.52195591
0.064251184 -0.72590983 0.53533804
0.045260847 -0.6953944 0.52948034
0.0186086 -0.67387402 0.53123057
-0.011261433 -0.62116331 0.53630966
-0.037491515 -0.57426345 0.51942658
-0.089854002 -0.52328908 0.51326925
-0.1040291 -0.46459997 0.5055576
-0.12320949 -0.43851927 0.5413875
-0.16600096 -0.4074229 0.52407038
-0.15011172 -0.35821471 0.54777735
-0.20957746 -0.31439009 0.52288204
-0.2209733 -0.2544983 0.53232819
-0.24012269 -0.2505177 0.5183267
-0.24316056 -0.18501392 0.54493582
-0.30445129 -0.13565731 0.50645345
-0.3161577 -0.12135817 0.51717728
-0.32677823 -0.06879434 0.53321457
-0.35803181 -0.027887026 0.5304389
-0.3803463 0.053329654 0.53910416
-0.43302405 0.050027084 0.5084883
-0.42620111 0.12709095 0.52973402
-0.47783053 0.16381195 0.54760331
-0.49644309 0.22907887 0.53640461
-0.50963414 0.27851912 0.51032692
-0.5340693 0.27822554 0.53422397
-0.56002086 0.32716066 0.52964598
-0.58692002 0.39429623 0.53020102
-0.62338591 0.41031745 0.5196926
-0.65420067 0.45003751 0.5086273
-0.69566798 0.51783162 0.50434685
-0.70828879 0.54652297 0.50387293
-0.72117233 0.58088052 0.54963738
-0.76532191 0.63914675 0.51883131
-0.77247715 0.69517988 0.53586137
-0.80862904 0.74422002 0.53988814
0.24360183 -0.97923172 0.54565072
0.23537906 -0.90926307 0.54292256
0.20917605 -0.87878072 0.50239789
0.19111352 -0.85041296 0.53705925
0.12842716 -0.79286695 0.53145629
0.11635992 -0.79098243 0.52265459
0.090998366 -0.72020918 0.54323912
0.091398686 -0.68333673 0.54443932
0.023411185 -0.63759881 0.54997247
0.0083756447 -0.59531164 0.54826933
-0.010571346 -0.55727035 0.52190977
-0.01991795 -0.48867422 0.52248633
-0.040870875 -0.47341064 0.52191699
-0.058495775 -0.40307224 0.51331913
-0.11788358 -0.37771976 0.54043931
-0.15409604 -0.33035415 0.52747464
-0.1415156 -0.30616423 0.53775251
-0.15790761 -0.24102664 0.53048307
-0.19927582 -0.18227652 0.50770044
-0.2166499 -0.15342656 0.54484528
-0.24558321 -0.10783384 0.5076288
-0.2655488 -0.091959886 0.52911973
-0.31146836 -0.026809528 0.5222972
-0.31588408 0.034572169 0.54627836
-0.36402029 0.043554928 0.5450756
-0.3746427 0.085096292 0.50122106
-0.41611549 0.15858825 0.52113777
-0.42292094 0.21612972 0.54164547
-0.45661223 0.20857717 0.54411381
-0.46709964 0.281762 0.50632286
-0.50650525 0.30944198 0.54499227
-0.54202914 0.35344344 0.52154112
-0.5467822 0.39334342 0.54039878
-0.58920699 0.4312084 0.52977133
-0.58854377 0.51648802 0.52777588
-0.64756775 0.53659755 0.52381611
-0.65417045 0.60106856 0.51025999
-0.6829586 0.63537616 0.54071236
-0.68206131 0.66791159 0.50207603
-0.7450527 0.70226961 0.52033848
-0.76660228 0.75512213 0.53733534
0.31018829 -0.94744593 0.51236033
0.28006953 -0.90585709 0.52622312
0.23198175 -0.87079841 0.52016771
0.21434782 -0.84925824 0.51820099
0.2013851 -0.7903294 0.50130486
0.17059281 -0.71031374 0.54868448
0.12498507 -0.70012546 0.54190433
0.14511102 -0.66211176 0.54904515
0.10609177 -0.59421486 0.52542263
0.08685194 -0.57055008 0.5202437
0.064040929 -0.51252693 0.5017671
0.0037456602 -0.50009841 0.54014641
-0.018664286 -0.45238695 0.54141062
-0.022650868 -0.37584031 0.54959035
-0.070089251 -0.35891375 0.53920126
-0.084288672 -0.3183713 0.50271857
-0.11757988 -0.24605064 0.51064968
-0.1304031 -0.20363835 0.52190417
-0.18563497 -0.16675267 0.54157966
-0.16957393 -0.13390721 0.53284019
-0.19907466 -0.085215457 0.50531507
-0.2087522 -0.050724965 0.50300872
-0.27254671 -0.014664097 0.52912474
-0.30114716 0.052703798 0.50973463
-0.28803059 0.073366411 0.54612124
-0.32064459 0.14551477 0.50353289
-0.35296637 0.19795746 0.54563469
-0.37861583 0.22577082 0.50060046
-0.38193795 0.24165 0.50541717
-0.42320621 0.31834379 0.52336437
-0.46968544 0.35448527 0.51848936
-0.48996291 0.3707031 0.54029804
-0.50701916 0.41444448 0.5381878
-0.51931006 0.49929866 0.54689491
-0.54633975 0.52484363 0.50790417
-0.5686838 0.57625896 0.53177452
-0.61837643 0.61177951 0.54096675
-0.61768067 0.62657613 0.50958806
-0.67823726 0.69997221 0.5029794
-0.68534696 0.73854136 0.54994881
-0.69160914 0.77718484 0.50927782
0.32530722 -0.94283742 0.53649735
0.29399377 -0.90913188 0.54724354
0.26447263 -0.84632194 0.54443032
0.2681005 -0.78669006 0.52987224
0.25394288 -0.74585193 0.52085835
0.2027712 -0.70185685 0.50411743
0.19186409 -0.65183407 0.51802021
0.13860865 -0.61777055 0.50377667
0.11464894 -0.5697462 0.50825012
0.091395885 -0.55599862 0.51970524
0.077365041 -0.50971842 0.50009608
0.05922325 -0.44989586 0.54088813
0.051704571 -0.42343217 0.5330168
-0.011134967 -0.37128675 0.53014791
0.0034065992 -0.32083547 0.50186574
-0.057675913 -0.28266978 0.50429732
-0.053707689 -0.24986179 0.53451073
-0.078203499 -0.16665035 0.51430637
-0.12611276 -0.15488009 0.50342774
-0.12230863 -0.11024416 0.54041898
-0.15397246 -0.054393906 0.52491701
-0.17345348 -0.017176289 0.5272373
-0.22154537 0.00056840276 0.51322812
-0.24902301 0.068915509 0.51694345
-0.24545629 0.10680649 0.53527606
-0.29862037 0.14955308 0.5146426
-0.28753966 0.19743957 0.52305967
-0.32358778 0.24580547 0.5158304
-0.38145614 0.28809738 0.53275514
-0.40560141 0.30894262 0.50547236
-0.43288425 0.3797738 0.53027177
-0.42789957 0.43371576 0.50134659
-0.45142785 0.47898531 0.53866923
-0.5056538 0.49325597 0.54579121
-0.51896954 0.54378837 0.50767362
-0.53092861 0.57168913 0.53797317
-0.54610348 0.61591381 0.54780912
-0.58904463 0.67809922 0.5208298
-0.59242725 0.71524113 0.51081425
-0.6592747 0.75579745 0.50681138
-0.6616441 0.77750701 0.50126934
0.35501945 -0.90237284 0.51409489
0.34451059 -0.85344297 0.50443536
0.34000686 -0.78894037 0.54110295
0.30204576 -0.78408086 0.52939659
0.29902259 -0.73727274 0.50707734
0.27261031 -0.7068184 0.51832664
0.21632412 -0.65561062 0.52773619
0.19202957 -0.59243643 0.5166899
0.206194 -0.55832511 0.50971055
0.17733262 -0.53036481 0.5120191
0.096641183 -0.4660551 0.53030008
0.11021058 -0.39853519 0.51371235
0.089398272 -0.39737508 0.5261122
0.036380723 -0.33780092 0.51234967
0.04456006 -0.30685145 0.50016356
-0.010685883 -0.2386664 0.5412963
-0.043722168 -0.22054987 0.50344509
-0.066272259 -0.16582564 0.54040408
-0.065813258 -0.096561737 0.50960046
-0.098560914 -0.11442725 0.54265153
-0.093897186 -0.040435877 0.53418529
-0.14774853 -0.0023979908 0.51612002
-0.17341504 0.040408067 0.50127846
-0.20744933 0.092055149 0.50494844
-0.2402536 0.1309799 0.501858
-0.25296944 0.14309175 0.51004982
-0.28869563 0.20854937 0.51693559
-0.29563653 0.23959941 0.52098018
-0.33810508 0.30114257 0.51261067
-0.35494861 0.31970352 0.54433399
-0.3736918 0.41115317 0.50658941
-0.4259057 0.44619644 0.50887084
-0.42108649 0.45047954 0.50103962
-0.44880903 0.53635854 0.53539312
-0.47700039 0.57671052 0.53229743
-0.51807809 0.61873472 0.54830837
-0.51208115 0.65607649 0.51734507
-0.56717408 0.68862116 0.50892293
-0.58544588 0.72075284 0.53700578
-0.58590114 0.80285871 0.50213605
-0.60099912 0.828233 0.54729694
0.43104213 -0.88251293 0.54139417
0.39878756 -0.86414909 0.5316509
0.37608498 -0.77231568 0.50255752
0.35338038 -0.76035708 0.54013634
0.3226549 -0.73164046 0.54567271
0.28230381 -0.66808051 0.54596955
0.27821833 -0.63166654 0.53683001
0.26465377 -0.59128398 0.50402969
0.23277056 -0.51472145 0.52647752
0.21032771 -0.51333535 0.53378487
0.16087556 -0.46235785 0.5131163
0.1706965 -0.41881943 0.51595092
0.12664703 -0.35115263 0.50140983
0.09107019 -0.32270122 0.53589588
0.059770122 -0.25545537 0.51392645
0.05025607 -0.22556773 0.50264162
0.011745334 -0.19160192 0.54599732
0.023522552 -0.15927424 0.52467132
-0.031122526 -0.089641169 0.51843464
-0.040849797 -0.059879147 0.50594503
-0.10184418 -0.021481281 0.53436255
-0.089547098 0.038052738 0.53650308
-0.12252511 0.088763304 0.53956693
-0.15774077 0.096368603 0.52587885
-0.19679061 0.160832 0.51834697
-0.19915099 0.21523978 0.51473486
-0.24276575 0.23301911 0.52149475
-0.23535015 0.26920989 0.54162115
-0.29045913 0.31019196 0.53551531
-0.32024676 0.38107887 0.51941985
-0.31191698 0.43127573 0.5456062
-0.37584496 0.45443738 0.52075499
-0.39037669 0.48930162 0.50310683
-0.39498407 0.56740266 0.53196043
-0.41086927 0.58586138 0.53129649
-0.45264998 0.64678222 0.52179629
-0.48010868 0.65187401 0.53974974
-0.50592303 0.74566758 0.51034319
-0.53457773 0.76793021 0.51228601
-0.56018037 0.80126512 0.51735061
-0.57582366 0.86425304 0.54261881
0.45703882 -0.83625084 0.51273167
0.41461366 -0.80525869 0.5348323
0.40890145 -0.79852754 0.54961497
0.36757228 -0.72629756 0.50655991
0.35582238 -0.68858951 0.52297628
0.33944401 -0.63975614 0.52229416
0.29827636 -0.58999765 0.53056538
0.28590438 -0.54230708 0.5334422
0.28447688 -0.50067204 0.5420177
0.22263038 -0.45233843 0.51294011
0.2208924 -0.39360124 0.51718432
0.18946938 -0.40173456 0.53949708
0.14972001 -0.34674105 0.51285428
0.13424844 -0.30044657 0.53081417
0.13815172 -0.26625022 0.50679529
0.084137157 -0.23943646 0.54600126
0.072177596 -0.13695097 0.51335549
0.050037816 -0.10351433 0.54568374
0.024985263 -0.06183362 0.53427809
0.00072171912 -0.023544194 0.53468341
-0.015747827 0.0023889728 0.52877051
-0.056441769 0.042998835 0.53944433
-0.089606501 0.063846834 0.51381791
-0.11491381 0.15459432 0.52166241
-0.11977296 0.1651618 0.52675921
-0.16999842 0.23864189 0.54197967
-0.20825565 0.26186877 0.52165055
-0.19684552 0.31510583 0.5467819
-0.2400223 0.34208506 0.50280011
-0.25387388 0.41432157 0.54364491
-0.28634879 0.4370425 0.51464695
-0.31849912 0.50381261 0.53263295
-0.31320721 0.53906846 0.51161695
-0.36728746 0.55449045 0.51130009
-0.3964766 0.60316873 0.5496546
-0.42414409 0.6361683 0.53753352
-0.40631348 0.69276196 0.54338956
-0.45141152 0.72503608 0.52713895
-0.48743558 0.79303634 0.50841588
-0.51383978 0.83362001 0.50405341
-0.52210516 0.86965722 0.51680166
0.49545786 -0.8508355 0.5364989
0.48686743 -0.79587454 0.51756454
0.46540803 -0.74088985 0.52408791
0.44191003 -0.70426953 0.5435257
0.39445728 -0.65053141 0.50515199
0.39239842 -0.6180883 0.54868257
0.34390384 -0.55791479 0.52408993
0.34706309 -0.50424331 0.50408787
0.32859901 -0.50001079 0.54248953
0.27596581 -0.44617969 0.53599668
0.27591017 -0.39238706 0.5232721
0.25834021 -0.35517144 0.50279069
0.20278987 -0.28829393 0.52813673
0.20098203 -0.25686446 0.52899009
0.14748749 -0.21612468 0.52102309
0.1294039 -0.20604701 0.51551902
0.11206445 -0.16488352 0.50036615
0.053210985 -0.088634171 0.51461601
0.072659343 -0.064923815 0.54459232
0.047039635 -0.0062803482 0.54745638
-0.0022090171 0.043844264 0.52769673
-0.0063277148 0.088506773 0.50502872
-0.030658236 0.1037295 0.52936047
-0.075938053 0.13703069 0.54729927
-0.08948341 0.2311496 0.53255719
-0.10103566 0.25061235 0.52121627
-0.15184164 0.29425707 0.51371253
-0.15728791 0.32196811 0.54367352
-0.18795232 0.35897756 0.54165173
-0.20316653 0.41580251 0.54809558
-0.26568148 0.46709791 0.52473634
-0.24164599 0.50262332 0.53164893
-0.29418308 0.54980212 0.50456071
-0.33595771 0.59819096 0.50948536
-0.34519917 0.63213676 0.52831525
-0.38426366 0.68195897 0.51975411
-0.3811782 0.72547013 0.53504282
-0.4192515 0.75682479 0.50465167
-0.47047117 0.82342637 0.53167182
-0.47413111 0.83860838 0.53660816
-0.46309361 0.89152682 0.51501346
0.56817317 -0.78538179 0.54338163
0.50941801 -0.74930263 0.51824367
0.51658642 -0.70677996 0.5400362
0.48354241 -0.6470015 0.51322645
0.45155287 -0.60821801 0.53667808
0.4449513 -0.59680533 0.50022304
0.37872252 -0.54051757 0.50008321
0.38052449 -0.4895305 0.52812159
0.36218953 -0.46421206 0.52236587
0.3235651 -0.42715126 0.50386614
0.32006073 -0.36610311 0.53530663
0.28215271 -0.3229838 0.52859771
0.26198295 -0.2874085 0.52938879
0.25082666 -0.2409744 0.51802671
0.18829262 -0.18298306 0.50377762
0.16150758 -0.17672697 0.52205485
0.14985338 -0.10396675 0.50422305
0.1329875 -0.06004183 0.52550834
0.1079542 -0.017794754 0.5247454
0.077958941 0.039608054 0.54007179
0.068029806 0.058717851 0.53015298
0.026259154 0.11092711 0.54276329
0.013488241 0.15727258 0.50842422
-0.027161926 0.19786994 0.54267156
-0.041816548 0.24627642 0.5440914
-0.080266789 0.24965997 0.52509785
-0.099224523 0.29022944 0.51443654
-0.13260555 0.37394047 0.54535878
-0.14683518 0.37968388 0.52134424
-0.14767021 0.45029137 0.50901902
-0.21362984 0.47536772 0.54649401
-0.23106562 0.52074128 0.50477928
-0.22752497 0.58644301 0.50406468
-0.29260454 0.63456202 0.50504291
-0.28535941 0.67234319 0.5425145
-0.32792738 0.6918903 0.51748008
-0.35431769 0.75142628 0.51156741
-0.37284231 0.80058849 0.52106369
-0.38070211 0.84168881 0.51643866
-0.42955041 0.88206953 0.51403642
-0.45904207 0.90005976 0.5226596
0.57665867 -0.78607368 0.50078452
0.55495471 -0.73308271 0.51112372
0.55742079 -0.71498561 0.53610551
0.5250051 -0.63444144 0.54169655
0.48411855 -0.61162305 0.50968111
0.48611435 -0.58166349 0.53946471
0.44432598 -0.52705777 0.53510737
0.41292512 -0.45572731 0.52596354
0.40814668 -0.45177251 0.50219035
0.34847915 -0.40028039 0.5193134
0.33187836 -0.34699264 0.52710974
0.31073722 -0.31461591 0.50419086
0.27806199 -0.26989692 0.51899707
0.26066187 -0.20949435 0.50704104
0.2616207 -0.16130351 0.53463495
0.20614213 -0.11361991 0.53808713
0.18790007 -0.11283595 0.53232068
0.15463349 -0.061592605 0.50457883
0.15360261 -0.0098130573 0.50991756
0.1292416 0.039625995 0.50148439
0.096524417 0.066839024 0.51782387
0.067992523 0.11852799 0.52198273
0.041342948 0.13992834 0.52506047
0.034238309 0.24013706 0.53780133
-0.0062918589 0.24524854 0.52492684
-0.013076052 0.28793979 0.53985983
-0.046490766 0.33807603 0.52577323
-0.05743143 0.39149901 0.54124415
-0.076866314 0.41947126 0.51720077
-0.14273927 0.46358272 0.54898787
-0.17308468 0.52360034 0.53855819
-0.17169067 0.55174464 0.53759235
-0.21060683 0.61728191 0.52655566
-0.23001337 0.6681819 0.50910258
-0.22605427 0.6852988 0.50243586
-0.29208195 0.75390548 0.5195263
-0.30606717 0.79335648 0.50363171
-0.3325882 0.80170524 0.52991486
-0.35918397 0.85811359 0.52133405
-0.36437559 0.93036473 0.53380597
-0.38174528 0.95277727 0.53148699
0.61108118 -0.74670315 0.51325321
0.63753814 -0.72873658 0.52630556
0.56947529 -0.66136259 0.53450358
0.57256323 -0.61010551 0.50660652
0.53709495 -0.56974804 0.52691603
0.51869035 -0.53667474 0.51988238
0.46903604 -0.48892149 0.51604772
0.45582169 -0.48567435 0.50481027
0.40973842 -0.40151903 0.50302929
0.42117363 -0.38989258 0.52661312
0.37756991 -0.30718836 0.52166212
0.35697302 -0.28429189 0.53319478
0.31563538 -0.23765381 0.52918941
0.29507172 -0.18877785 0.52777272
0.27565914 -0.16097541 0.53452677
0.26216403 -0.093054965 0.52719951
0.2587803 -0.051605906 0.50561494
0.19976494 -0.017398242 0.5439508
0.17017758 0.036853351 0.52983296
0.18690303 0.05689539 0.54845428
0.12356199 0.10160527 0.50982159
0.10897163 0.12254249 0.53251171
0.077358335 0.17115372 0.54498398
0.07071659 0.26320884 0.54714268
0.037002854 0.25827622 0.54244906
-0.0068201423 0.34145674 0.53995174
-0.023293644 0.35846397 0.52036369
-0.042562485 0.42297247 0.50147581
-0.058771625 0.46100998 0.50700963
-0.078530028 0.4932642 0.53708458
-0.10603857 0.52055168 0.53056961
-0.12677224 0.59829259 0.50967473
-0.15714061 0.63274831 0.50943303
-0.17094423 0.68849707 0.54930282
-0.22709216 0.73348725 0.50079882
-0.23980577 0.74583268 0.53768194
-0.24174926 0.79610032 0.53612763
-0.26458448 0.84441179 0.53289223
-0.28104925 0.88286746 0.51788795
-0.32342166 0.91822922 0.54817444
-0.34908688 1.0019339 0.52084696
0.68361664 -0.7087481 0.53515249
0.66264474 -0.70014852 0.54211611
0.60582578 -0.64532685 0.52310568
0.60523212 -0.62528795 0.51892942
0.5604043 -0.55448669 0.52098781
0.53756744 -0.5172025 0.51807302
0.54363084 -0.44428074 0.51398253
0.49447846 -0.4343881 0.52213997
0.48921442 -0.35427499 0.50833315
0.45060745 -0.32935959 0.50097704
0.42740554 -0.32999155 0.54418117
0.41110182 -0.25211409 0.54509777
0.4057264 -0.2053261 0.5378052
0.33508044 -0.1689688 0.52960795
0.30880505 -0.13460588 0.51028067
0.30596566 -0.096993357 0.54724681
0.26061809 -0.043408304 0.53676641
0.25838566 0.023469713 0.52716255
0.23755859 0.022875523 0.50680691
0.19879052 0.09548188 0.5490126
0.18561438 0.16155057 0.53368104
0.1770543 0.16800906 0.51360404
0.12289062 0.22502989 0.53391814
0.11665677 0.27034384 0.53593731
0.10967181 0.30784836 0.51338625
0.060439885 0.37362123 0.53882962
0.032559693 0.38098043 0.50683153
0.0043799132 0.41144812 0.5212357
-0.010763228 0.4925248 0.51860338
-0.04529953 0.51543069 0.51381719
-0.068169221 0.54828995 0.51472628
-0.069126278 0.61017555 0.52321774
-0.12056082 0.65516496 0.54939264
-0.12581876 0.70014626 0.52778709
-0.13985401 0.73655766 0.50835007
-0.20648178 0.80021822 0.51064324
-0.20968109 0.83861202 0.54282999
-0.25811082 0.86725396 0.53251237
-0.29348791 0.91907257 0.52277362
-0.29518938 0.96433061 0.53569227
-0.34320596 1.0002035 0.50106317
0.71017265 -0.72795045 0.50675839
0.72150129 -0.65652895 0.52570099
0.65786731 -0.60887522 0.53229946
0.64753729 -0.58375752 0.54422557
0.62664461 -0.53109181 0.54225266
0.62668884 -0.49619669 0.50513816
0.58932447 -0.45580122 0.54560924
0.56415844 -0.40699053 0.51806754
0.53196561 -0.38560927 0.53285253
0.50248206 -0.33189362 0.51600713
0.47125334 -0.28256223 0.52853954
0.43972069 -0.24349342 0.51046884
0.43610868 -0.17581403 0.5146811
0.40146208 -0.13590607 0.50862354
0.35695812 -0.086453423 0.52480072
0.34289002 -0.088281289 0.51008624
0.34655917 -0.0015101426 0.52062273
0.31144249 0.03648733 0.50730258
0.28352988 0.10198152 0.54041672
0.24289617 0.12148635 0.50282496
0.20690021 0.15837887 0.50592047
0.19562092 0.18915547 0.53900439
0.16792084 0.26800886 0.52206612
0.16422644 0.28437591 0.52492112
0.14064306 0.31785807 0.53931165
0.087880209 0.37656215 0.5269056
0.066499606 0.3854579 0.53774214
0.031771779 0.47325402 0.52947855
0.017770842 0.48207343 0.5341273
-0.0083145499 0.53141099 0.53381717
-0.041898355 0.5860458 0.51988733
-0.041455343 0.62696981 0.54837203
-0.059288472 0.69487214 0.54601693
-0.11213866 0.72668481 0.52605081
-0.14296694 0.77568555 0.52641714
-0.13192603 0.8279134 0.54192442
-0.18333392 0.83796954 0.54546267
-0.18618736 0.8974269 0.54697067
-0.24741921 0.93495464 0.52559936
-0.24851419 0.97855943 0.51430815
-0.29695994 1.0176121 0.50167662
0.75790411 -0.67908776 0.54797757
0.7265963 -0.65194172 0.50103384
0.74034816 -0.58612102 0.5338192
0.70100331 -0.53600556 0.5020389
0.69001639 -0.49937424 0.54699385
0.62230349 -0.4586013 0.50168139
0.60723019 -0.43622938 0.54152161
0.60548246 -0.37418276 0.53110647
0.56917042 -0.3559632 0.52616525
0.51687431 -0.28865361 0.52703357
0.52101839 -0.24851702 0.51299161
0.51350105 -0.20270485 0.50904459
0.45902598 -0.17638248 0.51753283
0.43699098 -0.14089492 0.53725684
0.44503129 -0.087247722 0.51920754
0.40489879 -0.054358222 0.50773275
0.36097419 0.0056767818 0.54183739
0.3574349 0.049403045 0.54695886
0.34019101 0.088906214 0.52657574
0.32136622 0.13669211 0.53026038
0.27976364 0.16796052 0.514162
0.25116247 0.24401657 0.53567898
0.23436883 0.26750016 0.5224818
0.19252625 0.2948724 0.52547187
0.16356213 0.33025613 0.51363856
0.12970175 0.40025738 0.5172528
0.12591492 0.46252772 0.53339386
0.11369902 0.48633558 0.51099712
0.042845264 0.54003394 0.51229376
0.036960736 0.58090121 0.50817305
0.0047445595 0.59895688 0.52493304
-0.0093955696 0.68658739 0.52432436
-0.019511074 0.72428423 0.52876037
-0.071873099 0.75331432 0.54923964
-0.064814597 0.78693885 0.53476655
-0.10393095 0.84512573 0.52581507
-0.13467398 0.86150217 0.52909338
-0.16757488 0.92047668 0.54025024
-0.17205462 0.97943127 0.50079936
-0.1802972 1.0052465 0.52374196
-0.20816994 1.0593476 0.54086685
0.79651594 -0.65833855 0.5062477
0.79664361 -0.6116125 0.54041088
0.77651095 -0.57476538 0.53973138
0.74868703 -0.53026706 0.50146621
0.72132254 -0.47587487 0.52357113
0.68678486 -0.43664923 0.5436582
0.67373455 -0.40847796 0.51463383
0.66691875 -0.36199108 0.54881763
0.60356092 -0.32523221 0.5387001
0.59666073 -0.27107581 0.52635306
0.54838353 -0.23423579 0.53931129
0.52809584 -0.17883229 0.5167135
0.53288192 -0.14941742 0.52101731
0.47543561 -0.084438443 0.51196718
0.46846008 -0.04786969 0.52899909
0.43349415 0.019175433 0.50686353
0.3832188 0.038027484 0.52345711
0.41726914 0.070273988 0.54143655
0.37384129 0.12836608 0.50017095
0.34137809 0.17469271 0.52282006
0.30438948 0.19989927 0.50834352
0.27048075 0.2349432 0.54634237
0.28970736 0.28523722 0.52570307
0.22581407 0.3564845 0.51928741
0.21301526 0.38475841 0.51210213
0.20799296 0.43956247 0.5451237
0.15846589 0.43875241 0.52321589
0.15160102 0.5154708 0.52426445
0.11314727 0.54973519 0.51095879
