# .PCD v0.7 - Point Cloud Data file format
VERSION 0.7
FIELDS x y z
SIZE 4 4 4
TYPE F F F
COUNT 1 1 1
WIDTH 1401
HEIGHT 1
VIEWPOINT 0 0 0 1 0 0 0
POINTS 1401
DATA ascii
0.39597273 0.040102541 -0.39243782
0.38565254 0.086012959 -0.39503837
0.37526751 0.13880175 -0.39891648
0.36300826 0.18172789 -0.40118682
0.35701084 0.23105198 -0.39920139
0.34485841 0.27546108 -0.40457082
0.33350682 0.33585459 -0.40965617
0.32159925 0.38680345 -0.41015303
0.3146131 0.43184894 -0.4138273
0.30289197 0.47480005 -0.41520178
0.29228354 0.53073186 -0.41687977
0.2676723 0.58092707 -0.41608584
0.26765513 0.62541538 -0.42036557
0.26398706 0.67465025 -0.42342234
0.25140595 0.72923821 -0.43093193
0.23931217 0.77898115 -0.42844546
0.23492217 0.81773394 -0.43251932
0.65567827 -0.17737737 1.0299392
0.62713432 -0.1553244 1.0393522
0.63288426 -0.087256193 1.038306
0.63101149 -0.056921899 1.0252053
0.63531852 -0.19101322 0.9980092
0.62396383 -0.16901234 1.0084339
0.61699224 -0.082173884 1.0106494
0.61166 -0.049529791 0.9907251
0.61304832 -0.015375018 0.97377604
0.65091825 -0.239169 0.94065708
0.62410712 -0.2112132 0.9653368
0.58823085 -0.036047578 0.9584204
0.59061384 -0.0081026554 0.93706912
0.64909601 -0.28805032 0.88026303
0.62718058 -0.25370476 0.90626109
0.58174062 0.0063348413 0.90239918
0.57345629 0.028002739 0.87875026
0.65067053 -0.33415785 0.84064114
0.63790178 -0.30675137 0.85577643
0.5608356 0.0078629255 0.85977006
0.56047654 0.033059001 0.84337956
0.5669508 0.065789878 0.81534535
0.63679147 -0.34977135 0.80532742
0.61966419 -0.32439592 0.82431942
0.56666446 0.056630433 0.80431914
0.55235481 0.076304317 0.78159285
0.64646077 -0.39564073 0.75457865
0.62897801 -0.37049693 0.77659541
0.53763819 0.087812841 0.73794705
0.53422952 0.11266381 0.71660602
0.63240623 -0.42224532 0.71480846
0.51646709 0.089752436 0.71119851
0.51694226 0.12132734 0.68735319
0.52070785 0.15245903 0.66186875
0.63477969 -0.4621104 0.66307896
0.61620045 -0.44211453 0.68374586
0.50060606 0.12861979 0.65753317
0.50205779 0.15737146 0.63210106
0.61953712 -0.5118103 0.61064732
0.62708068 -0.48179394 0.6288619
0.48658752 0.16832268 0.5981645
0.48272538 0.20464623 0.57941294
0.63139153 -0.55822009 0.56099522
0.62916136 -0.53431785 0.57884973
0.46665883 0.2131027 0.5474754
0.4676621 0.23964649 0.52441144
0.64274311 -0.6105271 0.51169157
0.62211251 -0.57516527 0.53100735
0.61094451 -0.5564537 0.53724313
0.45429468 0.25319088 0.48520371
0.45834565 0.28135711 0.46738282
0.62706494 -0.62260008 0.47703326
0.60924077 -0.61095554 0.47163248
0.43956804 0.26873392 0.44658995
0.43574047 0.28773469 0.42979521
0.43790555 0.32696438 0.40712789
0.62944818 -0.67605454 0.41567811
0.60997057 -0.6508925 0.43397051
0.42172694 0.30220914 0.3874158
0.4337337 0.32212675 0.38012889
0.62723446 -0.69309247 0.37929809
0.60753703 -0.66545826 0.4060213
0.41203618 0.33382678 0.32933238
0.41227508 0.36252636 0.30909893
0.60582781 -0.73100543 0.32890737
0.60855889 -0.70872825 0.34877869
0.38893318 0.34576315 0.28978774
0.39803028 0.37060088 0.27257565
0.63110328 -0.79014707 0.2783922
0.6136868 -0.76114285 0.29519075
0.38149452 0.38470465 0.23685837
0.38466692 0.41239899 0.21552473
0.63213921 -0.83371872 0.22390884
0.60944271 -0.81562996 0.23895359
0.36299539 0.42028457 0.17924607
0.36709261 0.44929534 0.16131079
0.61796308 -0.85245287 0.19679868
0.60643816 -0.82709914 0.20945525
0.34667468 0.43517834 0.14553261
0.34966803 0.4625259 0.12062097
0.34749913 0.49433595 0.10492611
0.60242963 -0.86650574 0.1701991
0.3318398 0.47264022 0.084962726
0.33165145 0.49588531 0.067210138
0.31543159 0.4749797 0.052753866
0.31183958 0.5068776 0.030068457
0.32016253 0.53655809 0.011673748
0.29583287 0.51897031 -0.0047492981
0.30176449 0.55053967 -0.025038183
0.30258036 0.58267361 -0.039843559
0.28129792 0.56094617 -0.060482323
0.2846694 0.58783346 -0.077169657
0.2686398 0.596044 -0.12564379
0.26938033 0.62492102 -0.14545137
0.2504065 0.60351127 -0.15613806
0.25245905 0.63421184 -0.17867398
0.25803566 0.66103095 -0.19301331
0.23296404 0.64356393 -0.21397609
0.23697186 0.66842109 -0.23364168
0.21640682 0.68393892 -0.2749877
0.22032523 0.7143988 -0.2933979
0.47626591 -0.64776039 -0.26693356
0.46903348 -0.60691899 -0.27311516
0.45834565 -0.55857354 -0.2762382
0.45023894 -0.50397056 -0.2754097
0.45019007 -0.45737362 -0.27798247
0.43914604 -0.40665323 -0.27807474
0.42499733 -0.35790306 -0.28132892
0.40995312 -0.31081319 -0.28260696
0.39634132 -0.26110491 -0.28976202
0.38774729 -0.21431699 -0.29125357
0.3781507 -0.16510409 -0.29374349
0.36583114 -0.1138528 -0.29714596
0.36156917 -0.067147851 -0.3018409
0.34723353 -0.018858492 -0.30187571
0.33780146 0.032631695 -0.30337024
0.32637739 0.078020513 -0.30819917
0.31886864 0.12537408 -0.31145847
0.32881546 0.17112702 -0.32934701
0.29592443 0.23242098 -0.320701
0.28703547 0.27683955 -0.31711066
0.27595901 0.32695776 -0.3200525
0.26463795 0.37137014 -0.32243061
0.26333952 0.42368144 -0.32344711
0.2448802 0.4711768 -0.33058643
0.23525047 0.51929814 -0.33129418
0.22665524 0.56673962 -0.3334775
0.2102356 0.62536031 -0.34499431
0.20379281 0.66595513 -0.33674371
0.1986115 0.7170195 -0.32805753
0.205194 0.75822157 -0.34167135
0.48103905 -0.59669667 -0.30022264
0.47739911 -0.55832851 -0.30485988
0.46709919 -0.50536078 -0.30406237
0.45812201 -0.46034932 -0.30456603
0.44691181 -0.41100299 -0.31232512
0.43322682 -0.35492477 -0.31368327
0.42429924 -0.30872318 -0.3132298
0.41405988 -0.26139283 -0.31466627
0.40512919 -0.21662992 -0.31986105
0.39566231 -0.16688094 -0.32049668
0.38553929 -0.1128397 -0.32570052
0.374861 -0.061181009 -0.32825637
0.36163735 -0.010873079 -0.33193886
0.3543458 0.034983933 -0.33636749
0.34510994 0.080091953 -0.3381331
0.33472371 0.12338424 -0.33731866
0.32444 0.18053693 -0.34261167
0.31633258 0.2217502 -0.34248221
0.30575919 0.27205443 -0.34589171
0.29454541 0.32587755 -0.34901881
0.28524137 0.36968988 -0.35248983
0.2739048 0.42328888 -0.35649312
0.26384377 0.4738068 -0.35698509
0.2541399 0.5217573 -0.35826123
0.23841333 0.57258183 -0.36948347
0.22337341 0.60976309 -0.37019539
0.21900654 0.6726945 -0.36689484
0.21172309 0.71617097 -0.36718178
0.20479965 0.76172847 -0.36874163
0.60191011 -0.12077615 1.0769968
0.5970602 -0.13419375 1.0507523
0.59598899 -0.11620551 1.0505638
0.59747005 -0.18155742 0.99044955
0.5846684 -0.1611658 1.0085289
0.57308865 -0.10590214 1.0038084
0.57573223 -0.077426434 0.98417854
0.58345079 -0.20808667 0.95377725
0.56907988 -0.17992052 0.97503126
0.55655026 -0.092502952 0.96678662
0.56175756 -0.062189221 0.95063436
0.55709743 -0.030662417 0.93463337
0.58778405 -0.24808845 0.89512634
0.57092953 -0.22473094 0.91673553
0.5348134 -0.054697156 0.90814531
0.54247737 -0.021544218 0.89450467
0.58907747 -0.2953231 0.8611275
0.57853031 -0.26988932 0.86786848
0.56403565 -0.23987529 0.88616258
0.52665639 -0.016638756 0.86287415
0.51336551 0.014343321 0.83797288
0.58066964 -0.32087266 0.81560647
0.50873137 0.030401468 0.80102426
0.51063585 0.05688709 0.78092003
0.58631468 -0.36896819 0.76342541
0.56434751 -0.3412773 0.78242874
0.51040554 0.045191288 0.76755232
0.4938252 0.060223818 0.74700832
0.5789566 -0.41173398 0.71049517
0.5832305 -0.39086494 0.73278958
0.47879696 0.073100924 0.69883317
0.48430514 0.096559823 0.68347567
0.58835292 -0.45749795 0.65568024
0.57947683 -0.43341506 0.67494196
0.45895362 0.079464138 0.66459179
0.46153331 0.10715753 0.6467768
0.46485734 0.1378544 0.62396371
0.58151674 -0.47896475 0.62311435
0.56787372 -0.44963706 0.6379565
0.44636345 0.11688358 0.61195165
0.44801927 0.1462183 0.59095871
0.44729304 0.17993605 0.57519054
0.58086514 -0.52566403 0.57189023
0.56036019 -0.49441361 0.60229152
0.42478895 0.15817213 0.56645393
0.42844367 0.19104296 0.53918064
0.58761597 -0.58149981 0.52293944
0.58240461 -0.54290867 0.54578221
0.40910268 0.20165402 0.49996206
0.4082346 0.22440332 0.48390323
0.58370018 -0.61945248 0.46287608
0.57480049 -0.59698868 0.49230877
0.39820552 0.24436176 0.44768339
0.39250803 0.26562625 0.41984367
0.57283711 -0.63388437 0.43739858
0.56560779 -0.62008446 0.44259325
0.37649417 0.25194597 0.40955448
0.38560629 0.27874762 0.39051139
0.58009243 -0.6798079 0.38115633
0.56795859 -0.66370744 0.39123774
0.37130165 0.28679436 0.34486619
0.37385988 0.3094157 0.32997271
0.57178783 -0.70644855 0.33621499
0.54994464 -0.67377204 0.36105099
0.35072923 0.28678024 0.31006017
0.35112047 0.31866717 0.28992698
0.58046079 -0.78600329 0.27273834
0.56624889 -0.75148737 0.2884464
0.55631542 -0.7246365 0.30720744
0.34016895 0.3277396 0.25626969
0.33839011 0.3591814 0.23276067
0.57594275 -0.79941869 0.24328059
0.55569744 -0.77534312 0.25931725
0.32287526 0.37200111 0.19276834
0.32462001 0.3995319 0.17387664
0.57253981 -0.84308803 0.19376802
0.56012416 -0.82259345 0.20283723
0.30609345 0.37210828 0.16365469
0.30754042 0.40896124 0.14040828
0.31068778 0.43440729 0.120193
0.5540185 -0.86959416 0.15598667
0.54683328 -0.84221458 0.16962206
0.28762627 0.41541487 0.10361242
0.28814983 0.44286245 0.084045649
0.54587722 -0.90689337 0.097373486
0.54500079 -0.88768649 0.11271739
0.26984787 0.45750898 0.046800315
0.2789948 0.48380941 0.027445555
0.54275227 -0.91854107 0.068811178
0.25910592 0.4943859 -0.011463761
0.25978851 0.53193074 -0.033916056
0.24202251 0.50183779 -0.038965702
0.24223232 0.53526205 -0.065769494
0.24364591 0.5652383 -0.082218349
0.22328091 0.54332012 -0.10474843
0.22986507 0.56921035 -0.12676352
0.21281552 0.5838775 -0.16205055
0.218297 0.6104266 -0.18347299
0.19585109 0.58796316 -0.19263065
0.2005446 0.62149614 -0.21988368
0.18798089 0.64514619 -0.24085611
0.4581778 -0.74052393 -0.19161254
0.44864631 -0.70702958 -0.20700431
0.43908167 -0.66173279 -0.21030599
0.42795753 -0.60860562 -0.21368289
0.4181397 -0.56140506 -0.21633863
0.41125393 -0.51002085 -0.21980172
0.41250014 -0.46310624 -0.2174443
0.39857745 -0.4114922 -0.21909988
0.38755941 -0.36132461 -0.21912152
0.37789917 -0.31465924 -0.22481257
0.35891056 -0.27286506 -0.22842628
0.34778476 -0.22014472 -0.23223567
0.33611035 -0.16728759 -0.23879099
0.32665515 -0.11915874 -0.23857325
0.31665564 -0.071874261 -0.24209821
0.3061173 -0.021862686 -0.245628
0.29649067 0.029156089 -0.24698758
0.28653669 0.074945152 -0.24814939
0.27825212 0.11103106 -0.25428081
0.26370692 0.17421424 -0.26522493
0.2530334 0.22758216 -0.26597953
0.24559975 0.27278912 -0.25815082
0.23555899 0.3202064 -0.26175547
0.22917962 0.36539775 -0.25961208
0.2318151 0.41991061 -0.2677933
0.21131468 0.4623639 -0.27269983
0.19555306 0.51342052 -0.27166414
0.1849463 0.56318182 -0.27581453
0.17540836 0.62053508 -0.27174246
0.17784119 0.65402776 -0.27128828
0.4544363 -0.65106046 -0.24056292
0.44675183 -0.60615861 -0.24455595
0.43588495 -0.55750149 -0.24695361
0.42733049 -0.51112741 -0.24808562
0.41822958 -0.45833421 -0.24115407
0.40867543 -0.41203177 -0.24335474
0.39785528 -0.35900301 -0.24523306
0.38752556 -0.31120449 -0.24996364
0.37642241 -0.26398817 -0.25937259
0.36710739 -0.21723956 -0.25985074
0.35671568 -0.16884461 -0.26428783
0.34635854 -0.11835521 -0.26636708
0.33591008 -0.068778753 -0.26987517
0.32402372 -0.019513071 -0.27147222
0.315696 0.026378393 -0.2721523
0.30583668 0.076372445 -0.27741992
0.28414965 0.12282062 -0.27716839
0.27376819 0.17273378 -0.28851688
0.26353478 0.22077334 -0.2872566
0.25444627 0.27335119 -0.28512001
0.2552917 0.32010216 -0.29033875
0.24394131 0.37478209 -0.29329288
0.23532891 0.42223996 -0.28933442
0.22336674 0.46853477 -0.30064595
0.21406126 0.51683038 -0.30304396
0.20219183 0.56913215 -0.31120491
0.18987203 0.61063403 -0.31433976
0.18440795 0.66184908 -0.30851471
0.17663312 0.69523591 -0.31476569
0.54377484 -0.14949006 1.0036515
0.53833055 -0.12778226 0.99753797
0.52642012 -0.19970644 0.94551766
0.51911926 -0.17098725 0.97109652
0.51755166 -0.11517698 0.96223396
0.51631641 -0.090281129 0.94193214
0.53103566 -0.21442792 0.91456091
0.49680471 -0.1065644 0.92906392
0.50386786 -0.081895351 0.90977979
0.5207386 -0.27385348 0.85380173
0.52335548 -0.23465878 0.88084805
0.48472762 -0.068130553 0.86878055
0.4855144 -0.034396172 0.85046232
0.48237324 -0.0029588342 0.83254683
0.53979659 -0.31226379 0.81354803
0.51936674 -0.28475109 0.83525389
0.47234654 -0.028856575 0.82366592
0.46905279 0.0012395978 0.80094224
0.53901553 -0.36256737 0.75715679
0.52618885 -0.33370245 0.77715456
0.51049495 -0.30618453 0.79372245
0.45378995 0.015630543 0.76353097
0.45670891 0.041192055 0.74326748
0.53334999 -0.38445967 0.72535747
0.51136398 -0.36025086 0.7421155
0.43012691 0.022016883 0.71151763
0.44021463 0.043000102 0.70255309
0.53047609 -0.42336702 0.67303675
0.51635313 -0.40180469 0.69316435
0.42274618 0.056136429 0.66233146
0.42569923 0.081545711 0.63897747
0.53414607 -0.47277784 0.61698318
0.51316977 -0.43961984 0.63419294
0.50573158 -0.41764235 0.65280914
0.40681744 0.063898563 0.63228238
0.4076159 0.095560074 0.60730225
0.40969372 0.12472147 0.58245784
0.52419972 -0.49570692 0.58601105
0.50888371 -0.47135663 0.60077739
0.39148426 0.1022709 0.57632256
0.38953876 0.13738698 0.55702251
0.39038396 0.17270374 0.53062606
0.52725768 -0.5470506 0.53352219
0.51878119 -0.5132392 0.55433381
0.37225699 0.15065312 0.52070099
0.37086105 0.1757226 0.50185394
0.52960896 -0.58905071 0.48705056
0.524616 -0.57074183 0.49994659
0.35877419 0.19305605 0.45972624
0.3597424 0.21632904 0.44278389
0.52959538 -0.63297838 0.42653811
0.51445866 -0.60566372 0.44845551
0.34327292 0.23076165 0.40479341
0.34434557 0.25458777 0.38749647
0.52147126 -0.64614552 0.40211549
0.50426936 -0.63555914 0.400345
0.32046175 0.2370683 0.35743731
0.32907104 0.25709581 0.34412238
0.51484585 -0.69456893 0.33978868
0.51143193 -0.67984647 0.34626603
0.31271243 0.26927286 0.30452251
0.3152051 0.29257011 0.29129907
0.50837302 -0.71447724 0.30332524
0.49731946 -0.68930697 0.32619816
0.29559422 0.27956891 0.27063784
0.29803538 0.30785239 0.24981672
0.29989743 0.33703947 0.22484517
0.50488973 -0.7679714 0.2547411
0.49850321 -0.74609643 0.27341896
0.27693462 0.31867212 0.21300364
0.2853179 0.34316117 0.19463515
0.50525832 -0.81390023 0.20007783
0.50195956 -0.78985226 0.22211742
0.26448846 0.35499185 0.15596282
0.26859498 0.38412815 0.13696384
0.52305245 -0.86240679 0.15366256
0.50501943 -0.83612049 0.16671151
0.24834156 0.36442369 0.10995787
0.24965477 0.39401561 0.097471774
0.23235607 0.41335469 0.076618791
0.50677228 -0.8790614 0.11775929
0.49261236 -0.85524678 0.1289655
0.23269629 0.40249687 0.067128241
0.23347211 0.43098348 0.043843091
0.23676777 0.4628002 0.023057282
0.49194145 -0.92019516 0.057940483
0.49874759 -0.90100121 0.073676527
0.22514486 0.44995934 0.0049005747
0.21719217 0.46526259 -0.010825813
0.20913005 0.48432964 -0.05112195
0.20566821 0.50914103 -0.072852015
0.18515444 0.4921791 -0.090057015
0.18808389 0.51725763 -0.10827053
0.16908145 0.53064936 -0.14459091
0.17287588 0.5564366 -0.16153538
0.4303484 -0.7551831 -0.14668256
0.42012954 -0.71484619 -0.15050101
0.40164232 -0.66395384 -0.15412855
0.39099646 -0.61533868 -0.15688789
0.38128901 -0.56805879 -0.15887988
0.37323213 -0.5169031 -0.16369087
0.3719511 -0.46645376 -0.16820651
0.36257172 -0.41673809 -0.16247302
0.35166645 -0.3683013 -0.16665286
0.34262514 -0.31682378 -0.16965747
0.32936382 -0.2723676 -0.17459476
0.31047678 -0.22591293 -0.17626488
0.29944563 -0.17436945 -0.18079799
0.28898787 -0.12481818 -0.18438309
0.28020906 -0.079101384 -0.18648177
0.26814675 -0.025385082 -0.1908173
0.25914001 0.019952774 -0.19113535
0.24851394 0.070615292 -0.19445068
0.24289346 0.099178195 -0.19437093
0.22446132 0.18163264 -0.20576018
0.2178607 0.23308843 -0.19870359
0.20812249 0.26744616 -0.20263141
0.19882607 0.31861234 -0.20325428
0.20285964 0.3666591 -0.20629251
0.19211292 0.41327673 -0.21038061
0.17800117 0.45652896 -0.21685052
0.15773153 0.50981456 -0.21615142
0.15280056 0.5646109 -0.20951802
0.15974474 0.59839481 -0.21878934
0.43684387 -0.75842488 -0.17307758
0.42591834 -0.70803344 -0.17848855
0.41430831 -0.66250563 -0.17823315
0.40364647 -0.61459458 -0.18459725
0.39237475 -0.56185597 -0.18425512
0.38741875 -0.51714295 -0.18872029
0.37558818 -0.46673936 -0.18433046
0.37090755 -0.42106861 -0.1889863
0.36228275 -0.37912706 -0.19082552
0.34976864 -0.31819946 -0.19341582
0.33721972 -0.26660398 -0.20232803
0.32524204 -0.2214542 -0.20373988
0.31576419 -0.1741406 -0.20930666
0.30134749 -0.12718636 -0.20846295
0.29437184 -0.072669327 -0.21269542
0.28123236 -0.027949274 -0.21463501
0.27514148 0.020459652 -0.21849179
0.26456285 0.072127044 -0.21944606
0.2545588 0.12202376 -0.2348628
0.23411298 0.16680568 -0.2310549
0.22486091 0.21711069 -0.2355209
0.22553635 0.26153964 -0.23015833
0.21068692 0.31278133 -0.23135185
0.20772672 0.366831 -0.22961682
0.19793034 0.41378063 -0.23242074
0.18505716 0.46555251 -0.24016428
0.16937089 0.51050371 -0.23959166
0.16069412 0.55970937 -0.24580592
0.15718818 0.60343736 -0.24990308
0.47943592 -0.16581669 0.96153963
0.48528051 -0.14130241 0.96207023
0.49046826 -0.20666879 0.91780829
0.47531104 -0.18946931 0.92828846
0.46124601 -0.13182154 0.9255414
0.46317363 -0.10058862 0.89981496
0.47949934 -0.23436528 0.86920184
0.46194267 -0.20706239 0.89133006
0.44453526 -0.12213182 0.88791013
0.44925451 -0.094891727 0.86763173
0.48300052 -0.28462821 0.82505977
0.46177316 -0.25775075 0.83776277
0.42737532 -0.080035925 0.8274883
0.4292233 -0.043449581 0.81263351
0.48316669 -0.32866579 0.76809561
0.46601772 -0.30443329 0.7909112
0.4104948 -0.035597205 0.77715367
0.40495825 -0.012238264 0.75933528
0.48634672 -0.37787849 0.71818101
0.47288203 -0.35083446 0.73745972
0.39855719 0.0028970242 0.72137445
0.40544677 0.022813141 0.70851117
0.47353888 -0.39672589 0.68287969
0.45921183 -0.37011302 0.7075069
0.38187551 0.0067102313 0.68449694
0.38624191 0.030671299 0.65951347
0.45698595 -0.41269708 0.65153217
0.37078786 0.048188627 0.62219214
0.3735075 0.071028233 0.6047321
0.48174143 -0.48867619 0.57878941
0.46702313 -0.46661234 0.5940457
0.35579443 0.083061159 0.56794655
0.35514379 0.12106174 0.54568499
0.45968032 -0.54615992 0.52702749
0.46705365 -0.51277882 0.54186141
0.45408869 -0.480768 0.56553411
0.33472824 0.095080733 0.53532588
0.3351531 0.12615341 0.51665002
0.33881593 0.15783727 0.49790782
0.47435737 -0.55893034 0.50000477
0.45538068 -0.53511959 0.51585877
0.3179245 0.13991809 0.48213661
0.32282567 0.16590971 0.46175411
0.47771096 -0.6069057 0.43469954
0.4608345 -0.57967103 0.45596057
0.30398679 0.1797412 0.42320278
0.30440426 0.20228708 0.40595168
0.47696495 -0.65135068 0.38458535
0.45858192 -0.62036252 0.40866312
0.28832698 0.21112508 0.36263558
0.29220462 0.23786294 0.33558992
0.46811867 -0.66048449 0.35609466
0.4481585 -0.64530551 0.3633168
0.27338266 0.21739048 0.32555702
0.27851534 0.24730527 0.30237195
0.46020126 -0.71566206 0.29519838
0.45756364 -0.68710697 0.31455278
0.26034331 0.25693142 0.26571012
0.26568031 0.28491259 0.24478906
0.47336817 -0.76134688 0.25133544
0.45282769 -0.73409945 0.26965138
0.24616337 0.29602182 0.20776606
0.24855208 0.32369387 0.19488543
0.46255732 -0.78287458 0.2151109
0.4448669 -0.7606802 0.22608525
0.22523642 0.30798304 0.17992604
0.22493076 0.33301592 0.15077519
0.46579289 -0.83000761 0.1623795
0.44678736 -0.80017382 0.1848135
0.2091012 0.34336859 0.11552715
0.21417427 0.37008882 0.096296966
0.46828461 -0.86976254 0.11189711
0.45514894 -0.85011798 0.12521839
0.19616604 0.35379332 0.074428558
0.19877982 0.38466591 0.058202446
0.18778753 0.40682906 0.035752594
0.46789289 -0.92380595 0.053676069
0.45729542 -0.89161026 0.070345819
0.44082189 -0.86681825 0.085618019
0.17906904 0.39359206 0.025744081
0.18397069 0.42210478 0.0041871667
0.46668339 -0.92442453 0.046663463
0.44911504 -0.90644813 0.047314823
0.16367435 0.43003684 -0.030881107
0.167732 0.4583239 -0.052048028
0.14911008 0.47270638 -0.093637884
0.14966583 0.49779636 -0.12015158
0.40238023 -0.85175645 -0.092316687
0.3950901 -0.81490386 -0.092413068
0.38927627 -0.76017731 -0.092768312
0.3834846 -0.71709883 -0.092323303
0.36478806 -0.66842979 -0.099787295
0.3554666 -0.62347388 -0.10216177
0.34536624 -0.57652026 -0.10656255
0.33296394 -0.51515925 -0.10811567
0.32379818 -0.47294676 -0.11252135
0.31888723 -0.42276132 -0.11339056
0.3126123 -0.37137017 -0.11102432
0.30500555 -0.32296568 -0.1134311
0.29096651 -0.27573881 -0.11483526
0.27353835 -0.22810844 -0.12278551
0.26378727 -0.18064967 -0.12482208
0.25266218 -0.1280905 -0.12879407
0.24269032 -0.079817116 -0.13114715
0.233042 -0.032994688 -0.13330287
0.22317219 0.014208794 -0.13623011
0.21290565 0.066123903 -0.13635045
0.20655799 0.097489357 -0.13718694
0.18075728 0.21873713 -0.14706802
0.17285085 0.2563284 -0.14964408
0.167377 0.31425631 -0.14714611
0.16265869 0.36030108 -0.15074635
0.15054655 0.40722781 -0.15083998
0.13198686 0.45803148 -0.15525067
0.13256741 0.5052349 -0.14989638
0.13785601 0.53592628 -0.16755575
0.40004039 -0.84747845 -0.10019612
0.40673614 -0.80850613 -0.11889601
0.40285444 -0.77220595 -0.12175733
0.39241219 -0.70795268 -0.11953455
0.37503481 -0.66482502 -0.12261266
0.36635756 -0.61569279 -0.12540221
0.35099506 -0.56766707 -0.12668908
0.34874511 -0.51822263 -0.13460475
0.33425856 -0.47174671 -0.13286954
0.32437229 -0.42231351 -0.12991947
0.32252502 -0.3681775 -0.13451678
0.31407213 -0.32798478 -0.13726556
0.29784727 -0.27149624 -0.14072949
0.27618718 -0.22603905 -0.14215523
0.27054977 -0.17970264 -0.14747757
0.26467776 -0.12953943 -0.15254849
0.25756478 -0.079471052 -0.1568526
0.24724936 -0.032044172 -0.16169262
0.23617101 0.016407788 -0.16142476
0.23081684 0.066716552 -0.16555774
0.21415114 0.11645162 -0.17825013
0.20015526 0.16186363 -0.17614979
0.19416094 0.20939338 -0.18061316
0.18542552 0.2615723 -0.17256308
0.17475772 0.30687457 -0.17118186
0.17157054 0.36087519 -0.17190796
0.16080022 0.41117758 -0.17635405
0.14603066 0.45955247 -0.18575668
0.13370991 0.50655371 -0.18489313
0.13317347 0.5422594 -0.18563694
0.21315145 0.1201784 -0.20304513
0.4341948 -0.17750117 0.92486995
0.42127156 -0.15454271 0.9174298
0.4380517 -0.22595564 0.86808574
0.41861057 -0.19599688 0.8870759
0.40952778 -0.14455789 0.88421482
0.40385151 -0.11278778 0.8571378
0.43906379 -0.28053024 0.81670308
0.42104435 -0.24943444 0.83761042
0.41512418 -0.22219998 0.85150844
0.39380741 -0.13323256 0.85174811
0.39409423 -0.10649949 0.82675701
0.39526176 -0.0641675 0.81085676
0.43095875 -0.29636687 0.78572857
0.42404652 -0.26919132 0.80955768
0.3826263 -0.090536773 0.79712433
0.37730312 -0.059561491 0.77561951
0.37643743 -0.027804136 0.74950725
0.43418574 -0.34015325 0.73506862
0.4246068 -0.31314299 0.75733382
0.36220169 -0.049959838 0.74509156
0.36128306 -0.024434507 0.72314882
0.433604 -0.39147884 0.67265332
0.41846371 -0.36605656 0.69719422
0.35081124 -0.013128638 0.67632926
0.35098386 0.01241082 0.65724468
0.43460083 -0.43828726 0.62926173
0.41585183 -0.40737438 0.64757681
0.40734649 -0.38387144 0.66259199
0.32944894 -0.0060175061 0.63952678
0.33064032 0.018947899 0.62354445
0.42689991 -0.45002508 0.60203135
0.41475534 -0.43750763 0.60212028
0.31556463 0.032070518 0.58613163
0.31736183 0.059062183 0.5656774
0.41936183 -0.49985448 0.5397144
0.41077375 -0.4778567 0.55745429
0.30271935 0.076158822 0.52759087
0.30038476 0.10770649 0.50583524
0.43191481 -0.55574721 0.49305072
0.41314936 -0.52573651 0.50941223
0.40356326 -0.4954713 0.52669531
0.28346324 0.08114332 0.49338862
0.27793097 0.11224508 0.47732937
0.28629756 0.14027411 0.45803586
0.41925025 -0.56641376 0.45858365
0.40296197 -0.54608464 0.47092873
0.26479745 0.12777108 0.44353965
0.26576304 0.15313935 0.42217171
0.26776838 0.18447512 0.39779249
0.42616129 -0.61709052 0.39900288
0.41814423 -0.59595931 0.41884786
0.25248432 0.16812378 0.38624457
0.25694752 0.18599141 0.37125462
0.41183257 -0.63500178 0.37010688
0.23379898 0.19663221 0.31903559
0.2418921 0.22531873 0.3039555
0.41168833 -0.68003368 0.30715969
0.39714837 -0.65744281 0.32458881
0.22013426 0.20856279 0.28224552
0.22151518 0.23190635 0.26478767
0.41111422 -0.73378116 0.25642738
0.3986907 -0.70195007 0.28200597
0.2087357 0.25000757 0.22852355
0.20905447 0.2707243 0.21204108
0.4207356 -0.77783656 0.20338243
0.410079 -0.75136071 0.23117656
0.19399023 0.2859472 0.17159927
0.19137311 0.30903834 0.1549719
0.40881896 -0.80137759 0.17192507
0.39580059 -0.77109021 0.19939268
0.17399979 0.29477197 0.13889152
0.17652345 0.32100976 0.11307263
0.40673614 -0.83719134 0.12590653
0.39404845 -0.8155846 0.14392549
0.16148281 0.3326546 0.077583492
0.16064906 0.35930288 0.055431783
0.41651821 -0.88185054 0.073083639
0.40215659 -0.86239076 0.081174791
0.14287329 0.37162125 0.017807424
0.14545822 0.39354247 0.0052713752
0.40089488 -0.91247869 0.037735164
0.39055228 -0.88444632 0.053955317
0.13822556 0.37830418 -0.02287221
0.12797999 0.40503186 -0.036724687
0.13160968 0.43761677 -0.056235969
0.39050579 -0.9435786 -0.0077399015
0.38341594 -0.91865182 -0.019178092
0.37179661 -0.87437332 -0.034359157
0.35984898 -0.81725478 -0.037926793
0.35436606 -0.76981479 -0.035544336
0.34751725 -0.71970558 -0.037041068
0.33179164 -0.67445421 -0.042309105
0.32005 -0.62447643 -0.047195852
0.31220722 -0.58684051 -0.049390733
0.28734708 -0.4681322 -0.056955934
0.27886891 -0.42806429 -0.059969425
0.27373838 -0.37509346 -0.059292257
0.26609635 -0.3300949 -0.057088196
0.25393438 -0.28354642 -0.057618022
0.23771524 -0.22710752 -0.067879677
0.22862816 -0.18489331 -0.071868956
0.21827483 -0.13664898 -0.076256454
0.20737505 -0.08346957 -0.078399301
0.19875622 -0.039816737 -0.078430891
0.18642855 0.017262995 -0.084036469
0.17811322 0.061079741 -0.082296848
0.17210484 0.085395038 -0.088669181
0.1469264 0.20897114 -0.092858315
0.13764358 0.25515753 -0.093752086
0.13389015 0.30980372 -0.09249711
0.13030744 0.35613853 -0.099636674
0.11388588 0.40689582 -0.083998978
0.11300826 0.44559723 -0.090673208
0.3794024 -0.90785074 -0.047138631
0.38050413 -0.86786908 -0.060033977
0.36982822 -0.8197757 -0.061505556
0.36349535 -0.77242988 -0.062860787
0.35865641 -0.71796751 -0.061340332
0.33548856 -0.66953367 -0.068049848
0.32707167 -0.62313598 -0.070109487
0.31710768 -0.57570332 -0.077435434
0.30605555 -0.5273701 -0.082754612
0.29721093 -0.47495514 -0.080844045
0.28689671 -0.42957529 -0.080508292
0.28618383 -0.38055342 -0.080353558
0.27834415 -0.32972115 -0.080852151
0.26586747 -0.27801085 -0.084805131
0.24768853 -0.23130298 -0.091004968
0.23688459 -0.18167374 -0.092712343
0.23022199 -0.13493204 -0.099233806
0.21489596 -0.086296201 -0.098596871
0.2050755 -0.037001014 -0.10005981
0.1972549 0.013356388 -0.10494941
0.18655062 0.060274422 -0.10457879
0.1714046 0.11067963 -0.11763889
0.16325212 0.15606272 -0.12470251
0.15544128 0.20569468 -0.1182518
0.14535189 0.25713724 -0.11838436
0.14487433 0.30336386 -0.118038
0.13581157 0.3564766 -0.11842203
0.12263346 0.40859956 -0.12191987
0.10925484 0.45292658 -0.12974113
0.10669136 0.48281413 -0.14050418
0.17558885 0.1280362 -0.14633018
0.17326522 0.13783252 -0.14838523
0.37988067 -0.19145343 0.88152838
0.38029432 -0.16324735 0.87538266
0.37766576 -0.2410351 0.8310715
0.36072206 -0.20912448 0.8489871
0.35156608 -0.15855169 0.84364837
0.36078811 -0.13050812 0.83026075
0.38384056 -0.28914642 0.77903795
0.36687255 -0.26434365 0.79812729
0.34113383 -0.23854855 0.81492943
0.32557392 -0.14817557 0.80535191
0.33289909 -0.11742347 0.78754735
0.34062815 -0.084026337 0.77239066
0.38836074 -0.34092066 0.72570741
0.37270975 -0.31277645 0.7437194
0.34944463 -0.28799689 0.75560939
0.3066721 -0.10657877 0.75780904
0.31656933 -0.073761761 0.73462892
0.32776308 -0.041620016 0.71759367
0.3744936 -0.35471874 0.69260019
0.34912634 -0.33208573 0.70772064
0.29133224 -0.063411653 0.69313097
0.30897284 -0.040257752 0.67702317
0.38026333 -0.40262145 0.642277
0.35510802 -0.37769026 0.65783715
0.33619165 -0.34530002 0.67796576
0.27782536 -0.067478657 0.65928173
0.28536272 -0.03393811 0.63840902
0.29986286 -0.00014650822 0.61375403
0.38432527 -0.45280531 0.58818573
0.36394143 -0.42256552 0.61060363
0.34062338 -0.39538786 0.62506831
0.26302934 -0.023608208 0.60096699
0.27715325 0.0051859021 0.58091098
0.3685708 -0.46793598 0.5563907
0.34209275 -0.44217888 0.5726831
0.25092769 -0.020192385 0.56676459
0.25767541 0.016936064 0.54426539
0.26997089 0.050111353 0.52609313
0.37379622 -0.52067578 0.49932516
0.35013604 -0.48813254 0.52082741
0.33236861 -0.46032727 0.53829759
0.23132563 0.022017062 0.50739038
0.23970675 0.052214205 0.48875773
0.25204873 0.094648063 0.46692136
0.37993741 -0.56611723 0.44732407
0.35355926 -0.53583431 0.46605739
0.333884 -0.50851077 0.48662972
0.21461868 0.061538279 0.44935721
0.22868466 0.097423553 0.43368837
0.23523545 0.13057715 0.41609851
0.36969495 -0.58585393 0.41310871
0.34482193 -0.55487216 0.43569759
0.20172 0.10137182 0.40031204
0.21440363 0.14261186 0.38016307
0.21520901 0.17192084 0.36339524
0.36757684 -0.63062119 0.36084533
0.33681297 -0.60356444 0.37824741
0.18648911 0.14263356 0.3357932
0.20645785 0.17129135 0.32158932
0.37453699 -0.6724596 0.30837336
0.35116339 -0.64683807 0.32080963
0.32745051 -0.61524463 0.35140744
0.16900492 0.14510912 0.3024973
0.17774367 0.17975014 0.28159791
0.19035482 0.21298945 0.25850946
0.35326219 -0.69598639 0.27309486
0.35461593 -0.6707198 0.29261389
0.15210819 0.18858075 0.24227107
0.17015553 0.22282875 0.22442263
0.36125827 -0.74389237 0.22230303
0.33549714 -0.71871793 0.23552918
0.14022064 0.19357878 0.20586574
0.14616084 0.22979957 0.18822449
0.15794349 0.26223648 0.16510051
0.36948776 -0.78778726 0.1742155
0.34675145 -0.76497608 0.18792814
0.32262492 -0.73570138 0.20081669
0.12084985 0.23775011 0.14975059
0.13209105 0.26876199 0.1311869
0.136127 0.29997355 0.10997444
0.35146499 -0.81009072 0.13193744
0.32315564 -0.777569 0.16010284
0.1062119 0.27549785 0.09979248
0.11748362 0.30696476 0.070299268
0.12560296 0.34085995 0.050370514
0.3546381 -0.85283625 0.080366969
0.3315959 -0.82738471 0.09376812
0.095623732 0.3115564 0.032828629
0.11994624 0.34331477 0.02312386
0.36339092 -0.90031958 0.031548858
0.32743979 -0.87070894 0.042448401
0.30868196 -0.82283628 0.031537116
0.30942726 -0.77661741 0.030670583
0.30030298 -0.72640562 0.030401409
0.28267932 -0.68086153 0.026267052
0.27247739 -0.63133246 0.021125078
0.25813484 -0.5793075 0.010180295
0.24610543 -0.53602272 0.0053256154
0.23729682 -0.48871773 0.003098011
0.2288444 -0.43193543 0.011097133
0.21723795 -0.38636518 0.0088176131
0.21790004 -0.33406058 0.008325994
0.2088089 -0.28419253 0.0077912807
0.19178629 -0.23913553 0.0012584329
0.17900372 -0.19078064 -0.002658546
0.16674948 -0.14315811 -0.0043471456
0.15822411 -0.092838585 -0.0073991418
0.15108204 -0.045279145 -0.010214448
0.13846374 0.003854692 -0.011806548
0.12930465 0.049440861 -0.01830405
0.1144762 0.096837103 -0.030253053
0.10602999 0.13676322 -0.033243954
0.095942736 0.20305508 -0.022470891
0.087729692 0.24887764 -0.02533704
0.088458061 0.30460119 -0.018413305
0.097168684 0.34997094 -0.024488986
0.096284389 0.39682037 -0.045883775
0.36683369 -0.94595844 -0.016412079
0.35808229 -0.91856432 -0.0048646331
0.33929968 -0.8708666 -0.0020725727
0.3337822 -0.82497525 -0.0081887245
0.32719898 -0.77423263 -0.004460156
0.32115483 -0.72365379 -0.0065277219
0.3038938 -0.67469275 -0.011685967
0.28980398 -0.62970209 -0.013040841
0.27244544 -0.579813 -0.0165658
0.26224208 -0.53317046 -0.027606547
0.25306392 -0.48522779 -0.026390135
0.25234771 -0.4329077 -0.027868032
0.2401166 -0.38199335 -0.026153326
0.23874974 -0.33000031 -0.027078509
0.23044395 -0.28092289 -0.027862012
0.2131927 -0.23810068 -0.03756088
0.19695067 -0.18602824 -0.036267638
0.191782 -0.13830593 -0.044585526
0.18234086 -0.091683745 -0.046137154
0.17132044 -0.038736105 -0.048143148
0.16220427 0.0063731074 -0.051425576
0.14782667 0.055079877 -0.049355805
0.12994051 0.10349005 -0.060175836
0.1248703 0.15293121 -0.065533459
0.11989856 0.20242333 -0.060825288
0.11145782 0.25558633 -0.0620116
0.11200762 0.3024013 -0.061200321
0.10136366 0.35179758 -0.065921068
0.090783119 0.40070719 -0.070823669
0.28418827 -0.56392074 -0.054662168
0.27697325 -0.52949107 -0.056882143
0.27062321 -0.49847656 -0.058095276
0.14479542 0.10857189 -0.08994031
0.13375354 0.16001868 -0.094630539
0.12943649 0.18058556 -0.095993936
0.30096912 -0.21004707 0.83675408
0.30504346 -0.18340459 0.83585972
0.31817794 -0.25718156 0.78782994
0.30666947 -0.23518547 0.80724257
0.29231095 -0.16967356 0.80464149
0.28608084 -0.14556354 0.77937043
0.3178947 -0.30472508 0.73693037
0.31316519 -0.27521375 0.76028848
0.29376173 -0.25012198 0.77805585
0.27340984 -0.15790853 0.76669925
0.2743485 -0.13090876 0.75289989
0.27764392 -0.1039151 0.7336269
0.30409598 -0.32001439 0.70553619
0.29616499 -0.29603922 0.72706747
0.25933146 -0.12156877 0.72102761
0.25912809 -0.089908898 0.69767165
0.30527067 -0.36704978 0.65522313
0.29792333 -0.34679872 0.66999537
0.24358892 -0.083582282 0.65398312
0.24857545 -0.055554986 0.63079232
0.31395006 -0.41408545 0.60251033
0.29537511 -0.38897482 0.61867344
0.28944063 -0.36210212 0.63893044
0.23032546 -0.07852155 0.62228775
0.22967887 -0.048702002 0.59810841
0.30068779 -0.43551248 0.5648371
0.28828144 -0.41112363 0.58188319
0.21099949 -0.03459549 0.55757546
0.21444869 -0.011007726 0.54022396
0.3035655 -0.4840993 0.50936168
0.28970504 -0.45940444 0.52951103
0.20069551 0.0010088086 0.5060063
0.19644904 0.028270662 0.47904345
0.30908537 -0.5312348 0.45515046
0.2942524 -0.50710642 0.47544557
0.18136716 0.04013598 0.44574222
0.18434238 0.068542421 0.42146227
0.30898809 -0.57763773 0.40641639
0.29688549 -0.55090606 0.42619285
0.28462362 -0.52050507 0.44895133
0.16689396 0.052119195 0.41224474
0.16510463 0.08062309 0.39040151
0.1667428 0.11500221 0.37705207
0.305758 -0.59218472 0.37428528
0.30549669 -0.57149452 0.39441413
0.14756131 0.087315261 0.35873714
0.15135241 0.11171567 0.34212568
0.29484725 -0.63817048 0.32477775
0.29058552 -0.6163072 0.34265172
0.13827944 0.09814167 0.32110748
0.13106751 0.12874615 0.29570523
0.13524771 0.1568234 0.27179265
0.29774714 -0.66674542 0.28480402
0.28037095 -0.63793939 0.30451867
0.1200397 0.13585734 0.26424173
0.12466407 0.16742092 0.24031341
0.2868104 -0.70379144 0.23720819
0.28012466 -0.67922914 0.2603142
0.10210013 0.17837697 0.2056846
0.10600448 0.20479286 0.18337089
0.29427671 -0.75521123 0.18156427
0.28543305 -0.73342347 0.19764835
0.090066195 0.21737242 0.14579922
0.089626789 0.24349892 0.12383437
0.28504777 -0.77808911 0.14499223
0.07426095 0.22359884 0.1143235
0.076733589 0.25552106 0.090670586
0.28730178 -0.81843734 0.088011146
0.27379131 -0.78384495 0.093942046
0.26510262 -0.72848183 0.08223474
0.24577665 -0.6814028 0.077154517
0.23614907 -0.63648856 0.073125422
0.23040748 -0.60860693 0.07186377
0.19160676 -0.42343843 0.059942067
0.18566322 -0.39354694 0.059698582
0.17870831 -0.33891284 0.056619465
0.1740036 -0.292173 0.058571756
0.16061926 -0.24391916 0.05356741
0.14459205 -0.19554549 0.049154282
0.13511848 -0.14956245 0.047046661
0.12440515 -0.097370684 0.04486084
0.11513305 -0.052429438 0.04273051
0.10643816 -0.010618448 0.040388823
0.06910634 0.16688401 0.028238416
0.063993216 0.1940828 0.029571533
0.055740356 0.24915212 0.036903262
0.06126523 0.28256804 0.037789524
0.28842115 -0.82913601 0.062668979
0.28461194 -0.7834667 0.064142644
0.27325535 -0.72837496 0.061582267
0.25707221 -0.67620367 0.052242279
0.247998 -0.63459367 0.050252497
0.23400927 -0.58342898 0.03794229
0.22095418 -0.53610206 0.03690052
0.20920753 -0.48698276 0.033792078
0.20075369 -0.44135863 0.039435625
0.1969521 -0.39064971 0.037340224
0.19025874 -0.34341016 0.039386868
0.18358922 -0.29598215 0.038684428
0.16588283 -0.2399596 0.032233417
0.15652251 -0.19479644 0.02683115
0.14449692 -0.14393049 0.024936557
0.13348341 -0.094840288 0.022595167
0.12584233 -0.046385288 0.021122932
0.11645532 0.004770577 0.015731931
0.09954381 0.053608179 0.012040675
0.091346741 0.099546671 -0.00017100573
0.081187725 0.14803088 -0.0043734908
0.073286533 0.19566619 0.0074549913
0.065240145 0.24449408 0.0042939782
0.063004255 0.28739023 0.009850502
0.27459741 -0.20518661 0.83364803
0.27324605 -0.19866699 0.83330601
0.26234341 -0.22151211 0.80625176
0.2573545 -0.19522297 0.80275482
0.26480818 -0.26971835 0.75399292
0.24160814 -0.24218851 0.77145326
0.23491192 -0.18665391 0.7653482
0.24357367 -0.14871588 0.7433719
0.24677825 -0.29027179 0.71848506
0.22901869 -0.26551834 0.73242253
0.21332335 -0.17506772 0.72662264
0.22210407 -0.14504087 0.70912731
0.22863364 -0.11288255 0.70023155
0.25859284 -0.33456004 0.66685647
0.23335767 -0.3124803 0.68418467
0.19933248 -0.13949707 0.67149425
0.21121812 -0.10912192 0.65275151
0.25324988 -0.3852832 0.60934895
0.23377538 -0.3587141 0.62968957
0.18440366 -0.099684417 0.61496723
0.19681001 -0.071016252 0.59241855
0.26661992 -0.43038595 0.55761081
0.25278831 -0.4065797 0.57875907
0.16379952 -0.094144821 0.58035958
0.17358327 -0.062338591 0.5577358
0.18268681 -0.029470682 0.53219563
0.24728918 -0.44923407 0.52463925
0.2263217 -0.42369035 0.54585433
0.14984488 -0.050516307 0.52013171
0.15866351 -0.022076786 0.49929258
0.1645484 0.012527108 0.48031232
0.25189376 -0.49427706 0.47688684
0.22957063 -0.47117603 0.49293584
0.1397593 -0.017164469 0.46011719
0.14567566 0.01501441 0.44787619
0.25858307 -0.54971981 0.41624969
0.23714638 -0.52097076 0.436905
0.21852708 -0.489939 0.45728239
0.11838675 -0.0074773431 0.43125305
0.12473035 0.025347471 0.40615931
0.13863087 0.05433327 0.38726118
0.26256371 -0.59205109 0.36824879
0.24635363 -0.56509393 0.38717109
0.21703672 -0.52994835 0.40785518
0.10608387 0.035658777 0.37244159
0.11367464 0.065997064 0.34914216
0.24817967 -0.61242455 0.33220905
0.23948026 -0.58609724 0.3543179
0.09020853 0.074805379 0.31485191
0.10140967 0.10333061 0.29611242
0.24842334 -0.65805727 0.28187063
0.22982621 -0.63171947 0.29925528
0.073003292 0.078257501 0.28133127
0.078915834 0.11288691 0.25648174
0.09102416 0.1473648 0.23939586
0.2376411 -0.70616466 0.22662234
0.23573589 -0.67879528 0.24587488
0.21237302 -0.65413672 0.25423935
0.064251184 0.12253064 0.22126949
0.064988136 0.15296948 0.19967085
0.070580006 0.18516308 0.17684627
0.23633409 -0.72416377 0.19445205
0.21616697 -0.69933724 0.21018833
0.037150621 0.15813386 0.16080904
0.051259756 0.18853623 0.1433751
0.2502327 -0.76576328 0.13631791
0.23277617 -0.74278295 0.14603794
0.20672584 -0.69231063 0.13635957
0.19298935 -0.63886684 0.13409293
0.17868567 -0.60101539 0.1320256
0.16673803 -0.54747748 0.12473762
0.15584397 -0.49550629 0.12137133
0.14596963 -0.44761503 0.11913592
0.14008975 -0.39581737 0.12112749
0.13291574 -0.3457275 0.11917287
0.12904239 -0.29696766 0.12451547
0.10798526 -0.25017267 0.11893404
0.10403728 -0.20370024 0.11029959
0.089249134 -0.14991847 0.10945964
0.075920343 -0.097666442 0.10133398
0.064636946 -0.054798424 0.09900111
0.057007074 -0.018343151 0.096699893
0.044910431 0.03704828 0.090554714
0.03367424 0.094458699 0.091039598
0.026726723 0.14133149 0.094447851
0.026319981 0.193829 0.10495365
0.041750908 0.22945893 0.089218438
0.24849677 -0.76993161 0.11763817
0.24156737 -0.73433053 0.11197382
0.2210598 -0.68392909 0.10621083
0.21136594 -0.63792747 0.10353678
0.1971693 -0.58771861 0.092059731
0.18267369 -0.54316443 0.090447664
0.1714828 -0.49307173 0.088677526
0.16401625 -0.44617152 0.087036133
0.16209412 -0.39402163 0.089684844
0.15276051 -0.34553677 0.085855961
0.14996767 -0.29217181 0.088844895
0.13054085 -0.24324468 0.082539082
0.1184361 -0.1967898 0.080228508
0.1097815 -0.14729619 0.076288462
0.10180068 -0.10107452 0.072669625
0.082374573 -0.051009059 0.073698282
0.065351486 -0.0018839836 0.068784595
0.059988499 0.042842865 0.061139405
0.049558401 0.092712402 0.059304416
0.047136068 0.14238316 0.054873288
0.03828764 0.19212025 0.06012392
0.03405571 0.23946774 0.056405544
0.20300603 -0.58309406 0.06389159
0.19589305 -0.54827636 0.062612951
0.18778515 -0.50916016 0.060560942
0.17517304 -0.44831342 0.057368994
0.063014269 0.09278971 0.028983414
0.05423069 0.13516515 0.026760399
0.19827414 -0.23876476 0.76074314
0.19510245 -0.21013775 0.75718772
0.20614147 -0.28545904 0.70963752
0.19080496 -0.26078469 0.72776377
0.17866826 -0.19800124 0.72528398
0.18357515 -0.1737957 0.70682931
0.20511031 -0.33050284 0.65739715
0.19328284 -0.30534768 0.6775369
0.18080425 -0.28173864 0.68363678
0.16294503 -0.18582889 0.68924856
0.16477108 -0.16278216 0.66940677
0.19219065 -0.34753457 0.62631798
0.18870592 -0.32858169 0.65068161
0.15327835 -0.14858097 0.63561273
0.14843655 -0.12518349 0.61212003
0.19893765 -0.39698416 0.57429731
0.18631124 -0.37320596 0.59073138
0.13519335 -0.10910851 0.57294571
0.13060522 -0.087835073 0.55374265
0.18711901 -0.41904542 0.53898764
0.1164372 -0.099902034 0.53360456
0.12005138 -0.073807657 0.5203712
0.11760497 -0.0445171 0.49373627
0.19265556 -0.46302903 0.48713768
0.17806268 -0.43762991 0.50719929
0.10757041 -0.061626136 0.47489294
0.1019032 -0.047239184 0.45601425
0.19806814 -0.51074022 0.43300992
0.18235564 -0.4865067 0.45547447
0.091098547 -0.061506391 0.44005662
0.089483976 -0.030440092 0.42076498
0.088092804 -0.0023922324 0.40598384
0.18784952 -0.55638528 0.3835468
0.18234086 -0.53598005 0.3964498
0.072924614 -0.014777303 0.39290258
0.069737673 0.015538752 0.36670059
0.072226048 0.042978168 0.34566948
0.18719673 -0.57943982 0.34639025
0.17403197 -0.55131334 0.36783177
0.057945251 0.026120424 0.33349574
0.053545713 0.050588369 0.31096369
0.18425703 -0.62513489 0.28972685
0.17570639 -0.60127234 0.31254804
0.042416334 0.064441562 0.27255994
0.038089752 0.085548759 0.25414303
0.18371105 -0.66929889 0.24042821
0.18332577 -0.6487413 0.25765079
0.023842096 0.10361511 0.21518749
0.028352022 0.12586337 0.20073599
0.19267774 -0.72128677 0.18582362
0.1750102 -0.69133431 0.20011449
0.1587348 -0.64764655 0.18715745
0.14864492 -0.60054815 0.18296498
0.10697484 -0.39886463 0.17309058
0.09824729 -0.35664192 0.17100447
0.093637705 -0.30626577 0.17517346
0.076352358 -0.25156882 0.16488445
0.067118406 -0.20640203 0.16318768
0.059641123 -0.16931933 0.16234666
0.044339895 -0.097869933 0.15601069
0.037627697 -0.064661205 0.15517181
0.0058481693 0.10831976 0.16065556
0.0027194023 0.13295346 0.16074359
0.19057775 -0.7258873 0.1699838
0.17737389 -0.68992025 0.16576678
0.169137 -0.64524251 0.16317505
0.15352058 -0.59163964 0.15688866
0.14076734 -0.54662579 0.15460062
0.13212276 -0.49928769 0.15135497
0.12209916 -0.4487507 0.1483863
0.11732936 -0.40249026 0.15091628
0.10608912 -0.35162461 0.15038753
0.10181785 -0.30701303 0.15260589
0.089720726 -0.25184071 0.14659071
0.079491854 -0.20161864 0.13875878
0.0682621 -0.15648717 0.13749748
0.048796654 -0.10880631 0.13148481
0.037957191 -0.059145033 0.12973392
0.030789137 -0.0072273016 0.12299007
0.021200657 0.039279878 0.11840796
0.0090792179 0.087522566 0.12108988
0.0052044392 0.13727027 0.12457621
0.0043098927 0.16828692 0.11820352
0.14840961 -0.24887872 0.72576857
0.14673519 -0.22248462 0.72194701
0.1606729 -0.2952548 0.67824602
0.13467836 -0.27448353 0.68874693
0.12652326 -0.21058366 0.68599272
0.135952 -0.18205062 0.66472262
0.16143823 -0.34488702 0.6181156
0.14423537 -0.31919709 0.64073616
0.12074566 -0.28713593 0.66369355
0.10541415 -0.20315877 0.64816552
0.11434317 -0.17372319 0.62812895
0.11890769 -0.14066926 0.60634577
0.13828373 -0.36431929 0.5852614
0.12556744 -0.33915767 0.60327661
0.092090845 -0.16109616 0.59407067
0.10149431 -0.13340572 0.57235104
0.15336895 -0.41171038 0.53134215
0.12840152 -0.38758975 0.54822707
0.076017141 -0.12447384 0.53479874
0.086052656 -0.094395101 0.51571614
0.15610957 -0.45877665 0.47888812
0.13248944 -0.43209338 0.49826169
0.11607838 -0.40491539 0.51671904
0.056875229 -0.11970174 0.50131059
0.066583872 -0.090624928 0.47737047
0.15710735 -0.50856388 0.42521667
0.13713527 -0.47810292 0.44799882
0.1246326 -0.45341229 0.46175924
0.04789114 -0.080277085 0.43373531
0.053839445 -0.052769959 0.41357088
0.1403017 -0.523197 0.39720398
0.12529635 -0.50088394 0.41222879
0.035734415 -0.043022096 0.38101619
0.04120183 -0.010352015 0.36736858
0.14369369 -0.5703671 0.34067363
0.12799573 -0.54618812 0.3591474
0.011698484 -0.036375582 0.34501261
0.019783974 -0.00041103363 0.32846245
0.023973703 0.029586315 0.30617204
0.15260863 -0.61593026 0.28995004
0.13472939 -0.59285986 0.30785155
0.11110854 -0.55940932 0.32999629
-0.0023474693 0.0074506998 0.29319388
0.00092935562 0.038746476 0.26981145
0.0086431503 0.072170019 0.24680835
0.13840961 -0.63861734 0.25442132
0.10981989 -0.60598755 0.25637549
0.097817183 -0.5667001 0.24478632
0.07397604 -0.45133096 0.23021281
0.063223124 -0.40541017 0.23586041
0.053691864 -0.3555032 0.23289514
0.056326628 -0.30815518 0.23004973
0.034472942 -0.26438481 0.23297697
0.022488117 -0.21235135 0.22393501
0.012659788 -0.16506419 0.22131276
0.0024604797 -0.11494255 0.2196852
-0.0077700615 -0.066408396 0.21623933
-0.018577099 -0.013263106 0.21455324
-0.02159667 0.042616844 0.22524822
-0.0095911026 0.077732623 0.21449184
0.14995956 -0.67945272 0.20998621
0.13751936 -0.6482321 0.21507776
0.12470627 -0.60097569 0.21279562
0.10671949 -0.55317897 0.205598
0.096442699 -0.50250882 0.20158249
0.084945202 -0.45528424 0.20166081
0.078567505 -0.40719068 0.20296532
0.073620319 -0.35190627 0.20024073
0.071862221 -0.30382627 0.20232177
0.053854942 -0.25681743 0.19385129
0.043370962 -0.20743427 0.19116467
0.031055927 -0.15708998 0.18746805
0.023699045 -0.11122441 0.18102491
0.012161016 -0.061311901 0.18019867
-0.0018839836 -0.014458776 0.17775941
-0.016389608 0.034240723 0.17580032
-0.015600443 0.084213555 0.17278814
-0.01479578 0.11426002 0.16710579
0.12418532 -0.57947886 0.17813635
0.11897326 -0.55433339 0.17681724
0.10770893 -0.50076318 0.17316175
0.09919548 -0.45969108 0.17100716
0.023850679 -0.095420361 0.15274322
0.018638611 -0.070274472 0.15142411
0.10409832 -0.24811691 0.71440893
0.10324788 -0.24401367 0.7141937
0.09008956 -0.26033056 0.68717277
0.086795092 -0.23724571 0.68352515
0.087662935 -0.31042063 0.63321137
0.081505775 -0.28715098 0.65258956
0.070877075 -0.22658816 0.64484626
0.075410843 -0.19793093 0.62289882
0.10035419 -0.35894412 0.57952046
0.079791069 -0.33184099 0.5984211
0.061133623 -0.30677861 0.61880702
0.048021317 -0.21512979 0.60692537
0.051694632 -0.18861505 0.58881509
0.058198929 -0.15632576 0.56806368
0.071634054 -0.37660652 0.54513156
0.067277908 -0.35495803 0.56779236
0.033652544 -0.17931923 0.55275178
0.037900209 -0.15182763 0.53241885
0.0869596 -0.42408749 0.4947809
0.068736792 -0.40217853 0.50831783
0.018540621 -0.13741735 0.49302334
0.023253441 -0.11531764 0.47479388
0.090613127 -0.47077996 0.44168794
0.07552743 -0.44435808 0.46091875
-0.0038092136 -0.13153982 0.45023474
0.0097837448 -0.11061317 0.43508631
0.081829071 -0.49384946 0.40533116
0.058651924 -0.46648139 0.42567512
-0.010795116 -0.095429361 0.3939091
-0.0040686131 -0.067096472 0.37382188
0.080834389 -0.53529453 0.35675284
0.058629513 -0.51432663 0.36846498
-0.031068802 -0.090629637 0.35783413
-0.02545619 -0.059469998 0.33920881
-0.016812801 -0.020932019 0.31865346
0.091493368 -0.58615673 0.30092973
0.063682318 -0.5594629 0.31416237
0.040976048 -0.5175876 0.29357472
0.028659582 -0.45581949 0.29289427
0.022325754 -0.41320539 0.297746
0.014438391 -0.35992926 0.29341382
0.011702299 -0.31167459 0.29318219
0.0017151833 -0.26354864 0.2915329
-0.01861763 -0.21648282 0.28881443
-0.027824402 -0.16963857 0.28534847
-0.040090322 -0.11883241 0.27898639
-0.047436476 -0.063531339 0.28552189
-0.043584108 -0.016058445 0.28530735
-0.037386894 0.013233006 0.26842394
0.087658882 -0.59714866 0.27127638
0.06914854 -0.55464435 0.26647928
0.054680824 -0.50818342 0.26124319
0.04163003 -0.45989496 0.26313305
0.038980246 -0.41428256 0.26723045
0.030960083 -0.36142901 0.26316929
0.030104399 -0.31050107 0.26139688
0.016770363 -0.25797731 0.25701839
0.00071644783 -0.21292603 0.25476509
-0.0097472668 -0.16430321 0.25228298
-0.02008605 -0.11386901 0.24939376
-0.030398369 -0.065501928 0.24746174
-0.04172945 -0.018059433 0.24622869
-0.042968512 0.023011506 0.23705524
0.071573734 -0.54610908 0.23344654
0.065195084 -0.51533568 0.23183221
0.031748772 -0.27841032 0.64482296
0.030673265 -0.25233856 0.64245319
0.039348125 -0.32548025 0.59056425
0.018269062 -0.29717168 0.61099368
0.011725664 -0.24002463 0.60377681
0.017364025 -0.21378788 0.57877624
0.040481567 -0.37234759 0.53575289
0.023845911 -0.34640387 0.55842668
0.0038032532 -0.32130927 0.5795126
