# .PCD v0.7 - Point Cloud Data file format
VERSION 0.7
FIELDS x y z
SIZE 4 4 4
TYPE F F F
COUNT 1 1 1
WIDTH 1317
HEIGHT 1
VIEWPOINT 0 0 0 1 0 0 0
POINTS 1317
DATA ascii
0.12032534 -0.079335429 -0.088844977
0.11461292 -0.071012296 -0.099045485
0.11513158 -0.055678271 -0.10352081
0.11458424 -0.079851471 -0.096475467
0.10952545 -0.073819719 -0.10364579
0.099897221 -0.084194116 -0.10971266
0.099649154 -0.060885206 -0.11687942
0.095396489 -0.052596021 -0.12263329
0.11951897 -0.051782195 -0.10032372
0.065517589 -0.079100311 -0.134454
0.070650592 -0.083813123 -0.13037507
0.082204282 -0.074293509 -0.12638049
0.059645578 -0.088499069 -0.13456613
0.058508772 -0.071624689 -0.13948958
0.068266451 -0.07105837 -0.1355945
0.050360292 -0.056196738 -0.1462214
0.043614812 -0.053462733 -0.14887398
0.053285055 -0.060144123 -0.14445774
0.058672283 -0.073971055 -0.13895506
0.069825292 -0.05242981 -0.1391919
0.033063646 -0.082370773 -0.14497447
0.010532534 -0.07210774 -0.15085195
0.018218091 -0.058765516 -0.15296352
0.0289234 -0.058570605 -0.15132083
0.039365631 -0.067940176 -0.14721003
0.006140667 -0.078391351 -0.1496066
0.0059978068 -0.072811417 -0.15096159
-0.021730844 -0.077613004 -0.14842002
-0.0068719462 -0.065440945 -0.15264748
-0.0091019562 -0.061102036 -0.15335816
-0.0079010129 -0.07184311 -0.15128161
0.00748308 -0.061928634 -0.15334044
-0.028320434 -0.070864886 -0.14878358
-0.041977454 -0.074583836 -0.14459202
-0.050248284 -0.060355905 -0.14537604
-0.046997547 -0.072281457 -0.14405958
-0.067921445 -0.070142984 -0.13562003
-0.064370431 -0.065289021 -0.13865063
-0.056840524 -0.055512324 -0.14388774
-0.053995866 -0.074504629 -0.14075419
-0.081931368 -0.085179374 -0.12320404
-0.090342209 -0.089410119 -0.11637034
-0.08841791 -0.0895596 -0.11761574
-0.081342436 -0.077423193 -0.12588573
-0.10135524 -0.059276778 -0.1159319
-0.093487397 -0.059118383 -0.12240596
-0.086566374 -0.059635762 -0.1271749
-0.083005033 -0.059239008 -0.12964052
-0.083303384 -0.072655365 -0.12605411
-0.08255627 -0.052366957 -0.13167241
-0.076806061 -0.062357001 -0.13299024
-0.11925075 -0.08915668 -0.086428404
-0.11927061 -0.075906046 -0.091492884
-0.11553132 -0.062090531 -0.10088617
-0.11171588 -0.062796198 -0.10490519
-0.10550288 -0.069020711 -0.10924549
-0.1242555 -0.078382194 -0.083330326
-0.1176608 -0.088170156 -0.08886537
-0.13599713 -0.074857175 -0.06515336
-0.13008487 -0.069300674 -0.078631029
-0.12459905 -0.060240161 -0.090158276
-0.13552818 -0.084132068 -0.060094561
-0.14786722 -0.06169451 -0.041015286
-0.14948252 -0.060305964 -0.036764469
-0.14096762 -0.057949655 -0.062562384
-0.14298628 -0.054215364 -0.059760332
-0.1393383 -0.068428896 -0.060728416
-0.14730899 -0.076239333 -0.029083485
-0.14755298 -0.070947692 -0.03444453
-0.14286327 -0.088028438 -0.036505502
-0.14982434 -0.074889816 -0.014059113
-0.15147282 -0.068987012 -0.011647217
-0.15228796 -0.064113438 -0.013639637
-0.15321033 -0.055163998 -0.023134628
-0.14711027 -0.070494488 -0.037180852
-0.14781907 -0.085781343 -0.0013586134
-0.15018262 -0.071622312 0.018593488
-0.15448561 -0.051996958 0.017334819
-0.14534444 -0.077768169 0.037108839
-0.14482424 -0.082349293 0.033933423
-0.14263281 -0.079791315 0.044080894
-0.14171398 -0.078776538 0.047951423
-0.14559336 -0.054646712 0.053645764
-0.14804238 -0.03661127 0.055774167
-0.14337721 -0.026650079 0.070385553
-0.14988829 -0.027160887 0.055055141
-0.13244647 -0.043429859 0.084224232
-0.12111916 -0.018019991 0.10611463
-0.12617896 -0.031908102 0.097103089
-0.10329612 -0.047977902 0.11749238
-0.091154486 -0.047746357 0.1272299
-0.097497292 -0.018914331 0.12799965
-0.11035946 -0.01859891 0.11710504
-0.082798034 -0.054998714 0.13093752
-0.090211488 -0.046005912 0.12789194
-0.075022489 -0.052698608 0.13594514
-0.074965261 -0.052912325 0.13594559
-0.069673806 -0.037800051 0.14183068
-0.052171644 -0.031611633 0.15020263
-0.050307859 -0.025247887 0.15221035
-0.027530454 -0.039032992 0.15540732
-0.029938594 -0.027329942 0.15670751
-0.0065327147 -0.01969571 0.16066039
0.039855875 -0.040656649 0.1553486
0.046208892 -0.04064652 0.15163901
0.072193958 -0.037377734 0.14060213
0.074137621 -0.018567448 0.14274776
0.081291012 -0.041587379 0.13478746
0.09848167 -0.039330494 0.12321708
0.10212474 -0.022523044 0.12350399
0.093071997 -0.017258778 0.13149691
0.085166357 -0.02020021 0.13622618
0.11314517 -0.048587468 0.10748851
0.11624024 -0.051065601 0.10355016
0.12728366 -0.036563445 0.094143793
0.13831531 -0.039543476 0.075596295
0.1401816 -0.021435596 0.078024633
0.14860949 -0.025482638 0.05884527
0.15137731 -0.051627051 -0.036438979
0.15931731 -0.015596646 -0.025712293
0.14444369 -0.030521313 -0.067140527
0.14314269 -0.017923616 -0.07359264
0.14507693 -0.022858955 -0.068407498
0.14956059 -0.038168348 -0.051506869
0.1483551 -0.034034934 -0.056076832
0.14952117 -0.017124446 -0.059891947
0.14974602 -0.022574078 -0.057199132
0.12269717 -0.051651359 -0.095534392
0.12388663 -0.04488882 -0.095974937
0.12033489 -0.035952624 -0.10283489
0.13199458 -0.02511598 -0.090227589
0.10387071 -0.054558698 -0.11517389
0.1040259 -0.015745388 -0.12323728
0.11614396 -0.027038403 -0.10951459
0.089903377 -0.039163653 -0.12955247
0.084605105 -0.044753406 -0.13241693
0.071471177 -0.032403376 -0.14184469
0.075804964 -0.015887134 -0.14230926
0.086227961 -0.0201042 -0.13556406
0.0967637 -0.027241809 -0.12719752
0.095295012 -0.017414134 -0.12996076
0.059994388 -0.042062283 -0.14525384
0.0503188 -0.022670964 -0.15217119
0.062530942 -0.020270925 -0.14791062
0.027022419 -0.040420663 -0.15516834
-0.00046498954 -0.042862516 -0.15702006
0.0087604336 -0.043258667 -0.15693864
-0.022810431 -0.035854153 -0.1568139
-0.0082784649 -0.05426291 -0.15491177
-0.0098375976 -0.033281911 -0.15866141
0.0041211424 -0.035029784 -0.15838051
0.009517136 -0.036188718 -0.15818955
0.0076613175 -0.025336299 -0.15981252
-0.032176021 -0.041828472 -0.15389434
-0.029293263 -0.051436394 -0.15270394
-0.037865177 -0.039165061 -0.15325664
-0.042128287 -0.047087375 -0.15052056
-0.036888629 -0.02383014 -0.15603785
-0.061246976 -0.054655865 -0.1423246
-0.078888081 -0.024804605 -0.13915567
-0.083783165 -0.033912245 -0.13501033
-0.068730623 -0.031577945 -0.14340581
-0.065305248 -0.023540402 -0.14625439
-0.091749363 -0.037147678 -0.12878866
-0.096482418 -0.036969226 -0.12529941
-0.10018284 -0.029100323 -0.12382752
-0.10775644 -0.024796715 -0.11845816
-0.1011963 -0.036029201 -0.12163602
-0.10457816 -0.030627463 -0.11992729
-0.091683194 -0.03740532 -0.12881525
-0.086224392 -0.023276271 -0.1349659
-0.091314986 -0.039980385 -0.12857734
-0.087678216 -0.035942495 -0.1317374
-0.086036548 -0.024768075 -0.13483894
-0.11113071 -0.042262059 -0.11106672
-0.1094403 -0.048042431 -0.11130934
-0.11929946 -0.051912297 -0.10052782
-0.11905341 -0.036425766 -0.10467274
-0.11307421 -0.045936454 -0.10822742
-0.12440661 -0.036079079 -0.097828895
-0.12552135 -0.037075575 -0.096232913
-0.12493239 -0.025663899 -0.099648423
-0.12362626 -0.037966911 -0.098318592
-0.1198336 -0.029794725 -0.10529261
-0.1137334 -0.02924013 -0.11148633
-0.10839699 -0.036656734 -0.11522843
-0.14346065 -0.038504191 -0.066513568
-0.13663502 -0.021283675 -0.084668539
-0.1309358 -0.030215954 -0.090393379
-0.14766605 -0.046190891 -0.052329235
-0.14558613 -0.042847827 -0.058824569
-0.14335339 -0.042802218 -0.064216971
-0.1529322 -0.043530364 -0.036436204
-0.15149824 -0.045768559 -0.0397605
-0.14658749 -0.054031793 -0.050799832
-0.14990409 -0.02541469 -0.055734072
-0.15566365 -0.036918063 -0.02775527
-0.15432683 -0.049650218 -0.02254197
-0.1594498 -0.020206921 0.019658661
-0.16064878 -0.020013588 0.0096655721
-0.15974724 -0.025952201 -0.0006023082
-0.14995253 -0.037709288 0.049811974
-0.15636189 -0.015164869 0.040345356
-0.15359159 -0.024352243 0.044757999
-0.15541945 -0.02420716 0.03890368
-0.14758365 -0.0078088772 0.067487426
-0.1484237 0.0070645823 0.069661953
-0.1363761 -0.011156539 0.08702343
-0.13364139 -0.018085608 0.089561008
-0.13433208 -0.0091618886 0.09053722
-0.12556818 -0.013700196 0.10145108
-0.11532287 -0.0015766701 0.11508992
-0.11168315 -0.007605433 0.11769735
-0.10607914 -0.01245796 0.12246836
-0.10367863 -0.016142216 0.12334634
-0.089911528 -0.015846292 0.13374747
-0.071436748 -0.0021772422 0.14648807
-0.08137466 0.009666468 0.14247888
-0.074454769 0.011313832 0.14640194
-0.071060926 0.0070605562 0.14774373
-0.048029862 -0.0059257173 0.15512539
-0.024071652 -0.0012737277 0.16138744
-0.028603857 0.013327595 0.16193299
0.025517467 -0.0084371129 0.16016102
0.041897748 0.006461713 0.15835963
0.071596071 0.014644991 0.14827642
0.087190121 -0.0050963922 0.13715307
0.10453296 -0.0091304993 0.12378699
0.11549102 -0.017613368 0.11212921
0.1145092 -0.01392121 0.11375877
0.11431091 0.0068822931 0.11725572
0.13565668 -0.012415393 0.087835357
0.14747548 -0.0002488899 0.070103146
0.1451132 0.0059943222 0.075694345
0.15048069 -0.0017550542 0.062419545
0.156414 0.0089316359 0.049186308
0.16167362 0.012199815 0.029301655
0.15554525 -0.016156105 -0.042238429
0.15794693 -0.0023545499 -0.040197559
0.1628387 0.011182431 -0.022839021
0.15081525 -0.013325278 -0.057847477
0.15382077 0.010429317 -0.057474248
0.094961144 -0.016904676 -0.13020214
0.07555335 -0.0040346859 -0.14402522
0.076324567 -0.0052777445 -0.14341524
0.065913893 -0.00037734449 -0.14919777
0.042066183 -0.010482504 -0.15636045
0.056260481 -0.017141413 -0.15115273
0.047012448 -0.0037812684 -0.15571699
0.052181426 0.0096620237 -0.15557429
0.029119119 -0.015332309 -0.15860236
0.035666581 0.011627438 -0.16034016
0.0099192988 -0.012139111 -0.16160688
-0.010127588 -0.015242768 -0.16100188
-0.0054395753 0.00575394 -0.16364579
0.003056451 0.0053585805 -0.16358532
-0.052061245 -0.015419845 -0.15268186
-0.038416442 -0.013780176 -0.15700409
-0.048245788 -0.0093416264 -0.15461393
-0.035983637 -0.0041775331 -0.15898211
-0.040487744 0.013902436 -0.15956607
-0.044862542 0.013226061 -0.15815993
-0.056840263 -0.00056757091 -0.15292209
-0.095103674 -0.0084503097 -0.13140672
-0.089496449 -0.0013989025 -0.13617849
-0.084446669 -0.0090165511 -0.13839212
-0.10990699 -0.016057953 -0.11827558
-0.09897577 -0.012672829 -0.12776479
-0.10600079 0.005805844 -0.12470692
-0.089112021 0.014814235 -0.13834006
-0.096558698 0.010936473 -0.13293034
-0.12892163 -0.00767325 -0.098574936
-0.13373543 0.0066922302 -0.095187746
-0.1393325 0.008678467 -0.086571947
-0.14872593 -0.012152281 -0.063270494
-0.14783475 -0.0087795192 -0.06647642
-0.1509973 -0.0048823073 -0.060136478
-0.15557586 -0.0021902786 -0.04815419
-0.14863995 0.0054484252 -0.068643615
-0.16122311 -0.0037285257 -0.023357408
-0.15992239 -0.010630697 -0.02549793
-0.1573748 -0.0082564056 -0.039661538
-0.15939626 -0.01652048 -0.024792628
-0.16210756 0.012079982 -0.027115146
-0.16134311 -0.014298532 -0.0089426655
-0.16218211 -0.0076295184 -0.0024103411
-0.16273867 -0.0032302095 0.004770963
-0.16076186 -0.019048095 0.00094243995
-0.16263658 -0.0039737942 0.0018612866
-0.16283171 0.0099120708 0.020660253
-0.1571915 -6.2340496e-06 0.043733351
-0.15723298 0.012147802 0.047573492
-0.14523377 0.029595776 0.079818197
-0.14644133 0.042473454 0.079227634
-0.14641066 0.046796471 0.079848684
-0.15551075 0.049452212 0.060690183
-0.1311432 0.025026031 0.10080502
-0.12212466 0.020936467 0.11135329
-0.12104835 0.030109636 0.11380273
-0.11928526 0.030878097 0.11518472
-0.11501486 0.017296553 0.11794862
-0.1050304 0.03012857 0.12821029
-0.10608622 0.043227568 0.12836702
-0.1048399 0.035272121 0.12878831
-0.11508708 0.042704392 0.12039902
-0.090636864 0.016172843 0.13746564
-0.089511737 0.031542215 0.13966326
-0.073757112 0.045658235 0.14958462
-0.057738531 0.026906377 0.15522183
-0.062013075 0.030061958 0.15370913
-0.05706843 0.031442575 0.15597914
-0.029460806 0.032962665 0.16337007
-0.040490158 0.024440462 0.16045648
0.0059555466 0.02797691 0.16557848
0.038806055 0.030249938 0.16128778
0.040332831 0.02206531 0.16027586
0.064795673 0.015488411 0.15132134
0.075598739 0.032160267 0.14769791
0.077933475 0.048430879 0.14754055
0.089117154 0.030252034 0.13979912
0.10655385 0.02440827 0.12639555
0.12668386 0.016940791 0.10526238
0.12711394 0.022638774 0.10542711
0.13237824 0.037271302 0.10065996
0.13739732 0.02683036 0.092222758
0.1463148 0.018393949 0.075920545
0.15027179 0.016375786 0.067469656
0.15299444 0.021489941 0.061967857
0.15098794 0.031460956 0.068835922
0.15032266 0.039825492 0.071712442
0.1542538 0.047441963 0.063465938
0.16203441 0.026248578 0.033341002
0.16608292 0.039917164 0.010992823
0.16562183 0.028503187 -0.0062431064
0.16606306 0.033942662 -0.0064375834
0.16601013 0.033651486 0.0060721799
0.16564044 0.0275982 -0.0069352649
0.16200671 0.015534588 -0.029206222
0.16163816 0.03042122 -0.03711601
0.16231836 0.038174696 -0.03748998
0.15051042 0.02857919 -0.069476441
0.14690244 0.022854725 -0.075528465
0.14571168 0.030919796 -0.079137653
0.14586014 0.049975052 -0.081251644
0.15751551 0.047672104 -0.055532049
0.12800819 0.04210541 -0.10642877
0.1355295 0.037720803 -0.096350491
0.10036939 0.021471556 -0.13118008
0.10963818 0.0301445 -0.1244057
0.10696422 0.034415238 -0.12707214
0.10177101 0.037548311 -0.13148996
0.10004066 0.049425278 -0.13384205
0.10640275 0.047272507 -0.12842132
0.078248031 0.035680037 -0.14649652
0.087606058 0.038563214 -0.14166659
0.085704789 0.045158744 -0.14313865
0.098452605 0.04304295 -0.13448128
0.071094297 0.016052812 -0.14873764
0.047650557 0.023725875 -0.158216
0.03500453 0.025267616 -0.16163662
0.03376174 0.020184083 -0.16146453
0.044460054 0.015252334 -0.15892142
0.021226004 0.043676335 -0.16526072
0.039504703 0.047490209 -0.16217755
-0.022463052 0.044217765 -0.16520631
-0.0076433388 0.046148382 -0.16675423
-0.0060288133 0.038035959 -0.16623007
-0.056885388 0.031689458 -0.15609062
-0.05418767 0.018924303 -0.1558513
-0.053852204 0.03268287 -0.15708096
-0.0444883 0.032078758 -0.15985499
-0.037583862 0.042273663 -0.16254996
-0.037044048 0.043629639 -0.16245857
-0.059422839 0.032150518 -0.15495466
-0.064552486 0.034679916 -0.15304667
-0.086263061 0.020809751 -0.14100558
-0.077932253 0.029572221 -0.14623219
-0.079954885 0.032326669 -0.14538993
-0.096271113 0.034393091 -0.13541615
-0.089321904 0.016910074 -0.13838419
-0.1112738 0.022271479 -0.12232008
-0.11403932 0.025451211 -0.12038098
-0.097905196 0.016033635 -0.1326088
-0.098639503 0.020754393 -0.13247646
-0.10461928 0.038841087 -0.12923905
-0.12115254 0.027328458 -0.11294688
-0.11745536 0.031641178 -0.11710136
-0.13390848 0.034418695 -0.098666273
-0.13002864 0.036274783 -0.10342786
-0.13318215 0.016128302 -0.096987456
-0.1400754 0.015588701 -0.086657301
-0.14233221 0.027253918 -0.084938832
-0.14229929 0.027712561 -0.084922068
-0.14950585 0.024318898 -0.070970289
-0.14774206 0.037907019 -0.07620123
-0.14566627 0.049245656 -0.081492864
-0.14084858 0.042932928 -0.089669667
-0.13741091 0.038426034 -0.093599334
-0.14966965 0.029379573 -0.071572438
-0.15606263 0.044424094 -0.058644004
-0.16199955 0.023587709 -0.032525394
-0.16043662 0.026353091 -0.041422453
-0.16429573 0.034892723 -0.025577188
-0.16552585 0.038918816 -0.01583226
-0.16634488 0.036260061 -0.0061904257
-0.16542229 0.040989563 -0.018024856
-0.16567318 0.043743383 -0.021043982
-0.16050744 0.037121434 -0.044672925
-0.16340278 0.042659536 -0.031968135
-0.164656 0.032921087 0.021555189
-0.16604346 0.042978421 0.012896136
-0.15037899 0.050842892 0.073210038
-0.1517873 0.057427671 0.070515081
-0.13600576 0.055332061 0.097269028
-0.13518584 0.062406141 0.099060841
-0.13370559 0.060502544 0.10084129
-0.13152686 0.06719505 0.10384298
-0.13803045 0.079373881 0.09566509
-0.11923221 0.061128102 0.11744805
-0.10518111 0.061837349 0.13024266
-0.099615067 0.051784769 0.13427252
-0.10095456 0.078700185 0.13435476
-0.11307254 0.073593453 0.1241795
-0.091191158 0.056118086 0.14010099
-0.045573093 0.077549204 0.16158745
0.077232651 0.051829372 0.14803739
0.10258447 0.052840073 0.13185839
0.11066021 0.051924992 0.12521353
0.10249997 0.069105178 0.13271432
0.10717933 0.066940226 0.12881243
0.097543776 0.079120271 0.13675392
0.12844834 0.060296722 0.10723472
0.11832278 0.079548858 0.11914305
0.13810851 0.057743911 0.094277956
0.14120671 0.071743973 0.090510532
0.15553534 0.06815242 0.062439907
0.16308871 0.072394148 -0.040059451
0.15680677 0.059515126 -0.058570821
0.15177083 0.063441746 -0.071279936
0.14920199 0.066526249 -0.076254159
0.13016476 0.054891109 -0.10480027
0.13142779 0.073212326 -0.10423674
0.14388977 0.079974614 -0.086866535
0.12152749 0.055518225 -0.11482102
0.11419152 0.050812688 -0.12219762
0.089634918 0.059346747 -0.14173867
0.096787311 0.066367112 -0.13680743
0.10090239 0.071230799 -0.13421692
0.067523673 0.058544498 -0.1530523
0.059981745 0.063638479 -0.15679403
0.052162461 0.051553585 -0.15864621
0.045297187 0.070329942 -0.16146551
0.066351511 0.072998084 -0.15404911
0.07215587 0.072459608 -0.15163143
0.02523464 0.050618403 -0.16518079
0.014550343 0.050169863 -0.1662695
0.017833479 0.056144159 -0.16620417
0.017003214 0.07578823 -0.16694163
0.020826662 0.066781826 -0.1663135
0.0016179614 0.051860869 -0.16697587
0.0069109001 0.05203373 -0.16696247
-0.016883673 0.065530784 -0.16665922
-0.039599445 0.05902113 -0.16268799
-0.024030268 0.058597039 -0.16574225
-0.044803314 0.060902715 -0.16129589
-0.062035665 0.050574929 -0.1549761
-0.082821317 0.059910242 -0.14545321
-0.072269626 0.058221236 -0.15099336
-0.077653721 0.065676317 -0.1484423
-0.097962297 0.051755007 -0.13536702
-0.10412468 0.059047252 -0.13094157
-0.10412824 0.069164589 -0.13138942
-0.089637913 0.071327358 -0.14177258
-0.12753657 0.064282633 -0.1086344
-0.12666814 0.075683102 -0.11015636
-0.13090079 0.077309087 -0.10507674
-0.13166253 0.078700215 -0.10423057
-0.1291949 0.065245196 -0.1066088
-0.12625495 0.078700326 -0.11077719
-0.12310742 0.079219669 -0.114627
-0.12480552 0.066649005 -0.11217858
-0.1436196 0.060300715 -0.086275145
-0.14059569 0.057459775 -0.090549432
-0.14252587 0.053373054 -0.087637007
-0.14727756 0.062739238 -0.079663977
-0.14220092 0.074848644 -0.08920747
-0.1319076 0.074381255 -0.10449398
-0.13872437 0.079044275 -0.094573252
-0.15943076 0.074915051 -0.052372754
-0.15070049 0.072395414 -0.074380003
-0.15420967 0.074242666 -0.066091388
-0.16628554 0.052895095 -0.020264914
-0.16193186 0.062514618 -0.044017836
-0.16634919 0.061903764 -0.018836973
-0.16643678 0.063916512 -0.018859694
-0.16689181 0.062671453 -0.013848677
-0.16491465 0.079930529 -0.031631682
-0.16745137 0.063646339 -0.0097523974
-0.16669059 0.051762216 0.010841529
-0.16712533 0.068366095 0.01295857
-0.16733865 0.071558423 0.011725787
-0.16773792 0.073022775 0.0036387427
-0.16755368 0.066620372 -0.0019382
-0.15722099 0.057440914 0.057801854
-0.16145436 0.068316765 0.045085534
-0.15012446 0.09106499 0.075655781
-0.14263639 0.090973333 0.089745387
-0.14269781 0.10786714 0.089865699
-0.14625469 0.10881524 0.083154455
-0.15560623 0.10309533 0.063725419
-0.15123485 0.10204627 0.074361175
-0.12480599 0.087604091 0.11280411
-0.12925781 0.088540867 0.10736265
-0.12687138 0.098977372 0.11047264
-0.10713574 0.085779272 0.12938656
-0.11516763 0.10443246 0.122656
-0.11333448 0.10063578 0.12448289
-0.090130553 0.086711466 0.14184196
-0.078062303 0.093199059 0.14889951
-0.070188895 0.081635557 0.15291636
-0.074549355 0.099211447 0.15081762
-0.099562578 0.098894797 0.1356706
-0.064547375 0.1093246 0.15530552
-0.030280886 0.10368656 0.16543296
-0.027546175 0.10236492 0.16598763
0.084930941 0.10258856 0.14521447
0.10882038 0.082997769 0.12796699
0.10927567 0.10831155 0.12789215
0.12107159 0.082479522 0.1164332
0.11647974 0.10457228 0.12134151
0.16201417 0.084447272 -0.044555876
0.16346225 0.097359173 -0.040234428
0.16620898 0.10316137 -0.026244331
0.14787078 0.086999282 -0.079773679
0.1427107 0.08442352 -0.08873415
0.13056216 0.087843463 -0.10576402
0.1337813 0.092190802 -0.10191225
0.12538181 0.10939969 -0.11235777
0.13651514 0.096703582 -0.098631606
0.11604792 0.08371973 -0.1215094
0.11909495 0.081584066 -0.118379
0.11986809 0.10095623 -0.11790957
0.066462748 0.084222943 -0.15428396
0.068870179 0.094586283 -0.15343221
0.046996001 0.081274308 -0.16122878
0.046465542 0.093886621 -0.16159241
0.058874432 0.10320144 -0.15783927
0.012267477 0.084617622 -0.16758026
0.011270764 0.10352227 -0.16787072
0.0073848688 0.085980907 -0.16798352
-0.024593873 0.0941322 -0.16653788
-0.011030431 0.084394239 -0.16768602
-0.043745603 0.09340889 -0.16271465
-0.020928513 0.092202045 -0.16719322
-0.038051419 0.081990458 -0.16366123
-0.025153678 0.087982766 -0.1662885
-0.05190796 0.094742849 -0.15994947
-0.025488751 0.098307185 -0.16634442
-0.039850783 0.097902477 -0.16351666
-0.084982812 0.090768404 -0.14515349
-0.076644622 0.088748902 -0.14955063
-0.074053608 0.10104749 -0.15106717
-0.072107553 0.097588286 -0.15214199
-0.092951089 0.092552826 -0.14006069
-0.087407723 0.088929005 -0.14367656
-0.11856753 0.085542202 -0.11900879
-0.13468942 0.087154791 -0.10073825
-0.14818655 0.083224922 -0.079070844
-0.14789574 0.084831767 -0.079650573
-0.14896201 0.10967934 -0.078119949
-0.14192493 0.10060984 -0.090278015
-0.13729405 0.095886178 -0.097120002
-0.15876618 0.092214726 -0.055629667
-0.1616922 0.10481624 -0.046334501
-0.16498441 0.086290151 -0.031701989
-0.16771191 0.093023472 -0.01239445
-0.16667487 0.094800964 -0.02278473
-0.16745652 0.090097904 -0.014515494
-0.16834058 0.096716963 -0.0063512279
-0.16612707 0.095125444 -0.02820617
-0.16410042 0.10176817 -0.036888447
-0.16794442 0.082987815 -0.003310815
-0.16816333 0.10443715 0.00022122863
-0.1681644 0.1060581 -0.0017750751
-0.16599223 0.094279476 0.027235398
-0.16047636 0.10206294 0.050237648
-0.16566971 0.10297128 0.029006796
-0.16592479 0.1002975 0.02765863
-0.16562778 0.10685454 0.029295968
-0.15705083 0.11005897 0.0603071
-0.15508008 0.1215151 0.064952344
-0.14069568 0.12083706 0.092067525
-0.13450155 0.11062345 0.10117415
-0.12797603 0.11315239 0.10916218
-0.12989856 0.11918788 0.10674458
-0.13175032 0.13349575 0.10430226
-0.12756 0.12788045 0.10952675
-0.12935823 0.13331985 0.10721771
-0.13879715 0.13032398 0.094769232
-0.12003642 0.11905101 0.11772963
-0.11041042 0.11102354 0.12691805
-0.11183131 0.1263999 0.12565793
-0.11320455 0.13896048 0.12435228
-0.083524145 0.12989706 0.14589319
-0.09105853 0.13474031 0.14121351
-0.062366489 0.13208693 0.15605037
0.021321503 0.13038273 0.1704268
0.081611589 0.13155299 0.14698218
0.065609582 0.13438717 0.15699546
0.11003196 0.11725173 0.12722857
0.10431004 0.13693453 0.13168581
0.12574279 0.12716848 0.11170574
0.14169905 0.12390831 0.090555824
0.13533185 0.12746656 0.099980131
0.16602045 0.11995486 -0.027172973
0.16524734 0.13127799 -0.030552929
0.15839773 0.12974347 -0.05670353
0.13065434 0.13927427 -0.10556371
0.1315264 0.12921569 -0.10464764
0.085465081 0.11271764 -0.14497148
0.085252292 0.13431898 -0.14492671
0.098102249 0.13358387 -0.13651368
0.066512458 0.1172863 -0.15444766
0.047350593 0.11681226 -0.16135605
0.072034582 0.13928576 -0.15194234
0.064737551 0.13881588 -0.15499133
0.02369188 0.11457104 -0.16662918
0.029705686 0.11027124 -0.1660389
0.010646969 0.12619472 -0.16787043
0.029110327 0.12696081 -0.16600186
-0.0047201086 0.11339332 -0.16816591
-0.020895176 0.12121247 -0.16688798
-0.0060842391 0.12258756 -0.1683256
-0.011760764 0.13227719 -0.16767244
0.0092614368 0.13407162 -0.1679972
-0.006541803 0.12784064 -0.16809028
-0.047245789 0.12284218 -0.16135259
-0.04000143 0.12505619 -0.16345437
-0.044033278 0.13510861 -0.16256317
-0.028857915 0.13804764 -0.16551593
-0.072496526 0.11194558 -0.15200897
-0.064599089 0.11633234 -0.15524237
-0.074575149 0.11114834 -0.15081188
-0.059990201 0.13248987 -0.15701942
-0.090228513 0.13407163 -0.14177346
-0.13197978 0.11524602 -0.1042561
-0.13096593 0.11415558 -0.10548532
-0.13261245 0.1258111 -0.10340396
-0.12426704 0.13785614 -0.11332909
-0.1407623 0.11108509 -0.092025332
-0.15284789 0.11745197 -0.070805967
-0.14883351 0.11824656 -0.078259036
-0.14523752 0.12263332 -0.084887862
-0.14378931 0.11352728 -0.08769244
-0.14773405 0.13364892 -0.080037542
-0.14724219 0.12847355 -0.081058398
-0.14991806 0.13243994 -0.075974479
-0.15430804 0.11804972 -0.066850983
-0.15383643 0.12279397 -0.067893013
-0.15658271 0.11041007 -0.061473858
-0.15670426 0.12327854 -0.061015829
-0.15749857 0.1371062 -0.059377238
-0.16381863 0.11768878 -0.038210239
-0.16483985 0.12485189 -0.033075403
-0.16818111 0.11242201 0.003915844
-0.16665226 0.11967607 0.023560643
-0.16576266 0.11571656 0.02851228
-0.16085246 0.11897691 0.048971184
-0.16601546 0.13698277 0.026366288
-0.12809263 0.14772902 0.10849921
-0.12551217 0.16343181 0.11128924
-0.111019 0.15728766 0.12581733
-0.10151281 0.16466688 0.13352554
-0.095841929 0.14060146 0.13793053
-0.077986516 0.1496927 0.14859173
-0.07736101 0.15327583 0.14887117
0.049461544 0.15421669 0.16071896
0.031790197 0.15039062 0.16530527
0.063072592 0.1544565 0.15846725
0.06154602 0.15518549 0.15631273
0.091677956 0.1493376 0.14060865
0.10485955 0.16413389 0.13076222
0.12116 0.15639751 0.11602134
0.13582391 0.15902832 0.098496057
0.15655608 0.15121023 0.060510136
0.1657114 0.15942101 0.026452458
0.14933868 0.14853626 -0.076628
0.15033659 0.14527577 -0.074842729
0.15724422 0.16098326 -0.05840541
0.12995617 0.14649551 -0.10623356
0.13203011 0.14712606 -0.10367749
0.13601872 0.16389367 -0.098405704
0.12119433 0.16117588 -0.11587103
0.083196089 0.15492912 -0.14570215
0.083625756 0.160605 -0.1453878
0.093202792 0.15469086 -0.1394559
0.057844799 0.15284818 -0.15775116
0.043876778 0.14828338 -0.16235954
0.039388195 0.1463304 -0.16330288
0.042059887 0.14369817 -0.16280018
0.018964717 0.14973743 -0.16673997
0.026947843 0.16444299 -0.16572309
0.036597814 0.1501177 -0.16379739
0.041948855 0.16171448 -0.1625604
0.034384858 0.1584754 -0.16413411
-0.0061157653 0.1400013 -0.16794619
0.00051540521 0.14754604 -0.16782793
-0.019252017 0.15680124 -0.16662362
-0.013849905 0.15590094 -0.16716045
0.0063721682 0.15624167 -0.16770469
0.0062331343 0.15899004 -0.16766353
-0.082386084 0.14383176 -0.1463469
-0.070347041 0.14214724 -0.15277541
-0.085705198 0.15112831 -0.14446148
-0.083859459 0.15176044 -0.14543192
-0.073467411 0.15743102 -0.15085846
-0.10330395 0.1513675 -0.13225827
-0.10445727 0.15559821 -0.13124399
-0.12850939 0.15189523 -0.10788356
-0.124887 0.15375461 -0.11222687
-0.15024951 0.14847593 -0.074945018
-0.14612742 0.1446452 -0.082741238
-0.14513552 0.15016657 -0.084395789
-0.14749549 0.15262745 -0.079945169
-0.14333922 0.15373224 -0.087448969
-0.13674162 0.16002105 -0.097129397
-0.14463097 0.15577443 -0.085481755
-0.15993962 0.16414447 -0.050115008
-0.15881385 0.15048641 -0.0551119
-0.15477832 0.16169345 -0.064389586
-0.16398369 0.14217992 -0.036192689
-0.16353789 0.15483101 -0.037571892
-0.16673572 0.14842229 0.019451382
-0.16656864 0.16106796 0.019266194
-0.13384266 0.16969322 0.10099597
-0.11043602 0.16536589 0.12614967
-0.10333041 0.16674176 0.13198799
-0.11225919 0.18455611 0.12159975
-0.077638924 0.18007807 0.14705902
0.12038577 0.1685646 0.11657766
0.13586573 0.17622896 0.097427875
0.16102649 0.17029107 0.04634719
0.16515554 0.17484619 0.028221974
0.16586207 0.16670036 -0.025078107
0.14679004 0.17432331 -0.08068677
0.12191325 0.1730611 -0.11494371
0.10122379 0.17771536 -0.1327184
0.12275568 0.17718314 -0.1132806
0.093620092 0.17352746 -0.13889444
0.090158507 0.16677679 -0.14130352
0.064989209 0.17863023 -0.15341055
-0.0068115881 0.18028583 -0.16626023
0.00093776971 0.18326075 -0.16562518
-0.044096213 0.16603783 -0.16172792
-0.050278157 0.17811731 -0.15896051
-0.043636736 0.18353957 -0.16015404
-0.027272845 0.18398449 -0.16328196
-0.082128353 0.17298467 -0.14603575
-0.070505895 0.17036682 -0.15225145
-0.078110389 0.17589512 -0.14780612
-0.077222086 0.18114185 -0.1470207
-0.074582532 0.17700878 -0.14942887
-0.099395104 0.16618475 -0.13514856
-0.10301008 0.16618888 -0.13224737
-0.10505131 0.17370541 -0.13044827
-0.10566501 0.17375198 -0.12996872
-0.095954962 0.17786103 -0.13645189
-0.11760879 0.17007488 -0.11932928
-0.13371742 0.17437723 -0.10110389
-0.12247817 0.17988119 -0.11292305
-0.14726952 0.1818336 -0.076496251
-0.13711768 0.1766424 -0.095428951
-0.15767337 0.18439701 -0.049959652
-0.15231647 0.18359287 -0.064875297
-0.15353225 0.1849121 -0.061246928
-0.16211894 0.17078613 -0.043574814
-0.16619375 0.16872159 -0.021819741
-0.16714935 0.16950658 -0.012342343
-0.16117537 0.18444566 -0.037330218
-0.16544743 0.18403758 -0.0093818353
-0.16023912 0.17677826 0.047066383
-0.15860195 0.18165606 0.048919696
-0.070797555 -0.18427974 0.027673846
-0.07527072 -0.18452315 0.029658802
-0.071482837 -0.18600892 0.008096287
-0.066679634 -0.1860013 0.014918601
-0.074336253 -0.186001 0.019242313
-0.01282402 -0.18600586 0.01926486
-0.10139187 -0.18157901 -0.0094287628
-0.10384304 -0.18142515 -0.0036888176
-0.069989033 -0.18515973 -0.004155708
-0.095166616 -0.18277141 -0.016209815
-0.085765094 -0.18398628 -0.0093570026
-0.017820582 -0.18600439 -0.0079787495
-0.0017714264 -0.18599348 -0.0017716208
-0.074449323 -0.185991 -0.0022133337
-0.079338938 -0.18436146 -0.030275663
-0.066730604 -0.18608326 -0.034923382
-0.095640786 -0.18224332 -0.031662311
-0.086187929 -0.1839955 -0.023585875
-0.07969474 -0.18351638 -0.038324021
-0.067546695 -0.18631223 -0.022795191
-0.053150482 -0.18600659 -0.0022702545
-0.069708511 -0.18510439 -0.041724589
-0.065580487 -0.18522318 -0.034522392
-0.078733101 -0.18327907 -0.048974521
-0.072798416 -0.18441036 -0.040316589
-0.064214483 -0.1857098 -0.037167616
-0.064833395 -0.18509072 -0.043540947
-0.072850198 -0.18380895 -0.049338516
-0.039068617 -0.18600522 -0.0056631351
-0.0072696563 -0.18600301 -0.010978132
-0.0028517479 -0.18599543 -0.038492829
-0.061422691 -0.18600361 -0.030343752
-0.050169408 -0.18599127 0.00013158168
-0.041663278 -0.18600194 -0.037523255
-0.038487002 -0.18600759 -0.0026953642
-0.0015408777 -0.18600792 -0.019510629
-0.066978611 -0.1834811 -0.043523531
-0.077661462 -0.18271148 -0.052172504
-0.071829736 -0.18328504 -0.055068478
-0.073616296 -0.18237314 -0.066418678
-0.05773076 -0.18316141 -0.069700673
-0.059759621 -0.18471952 -0.057026617
-0.012506738 -0.18599992 -0.041683029
-0.011249452 -0.18600933 -0.03305126
-0.012169727 -0.18599103 -0.0034162903
-0.054075427 -0.1860044 -0.02648137
-0.041548334 -0.18599986 -0.040559784
-0.04149415 -0.18599004 0.0012006391
-0.037937187 -0.18600672 -0.031119719
-0.015317494 -0.18599495 -0.021255545
-0.0046724449 -0.18599796 -0.031393137
-0.061692953 -0.1827445 -0.061660249
-0.049106915 -0.18498977 -0.065738656
-0.051082771 -0.18312061 -0.080927588
-0.04947922 -0.18495521 -0.062007133
-0.040957026 -0.18455689 -0.077494815
-0.052396242 -0.18630861 -0.059849732
-0.035285648 -0.18609232 -0.054878745
-0.033095602 -0.18430936 -0.064864397
-0.036914915 -0.18599267 -3.9657054e-05
-0.031344689 -0.18599473 -0.0026361572
-0.027288625 -0.18599938 -0.041452058
-0.019737819 -0.18600796 -0.04933694
-0.0063448539 -0.18599252 -0.027610745
-0.0045208926 -0.18600242 -0.046395909
4.1812313e-05 -0.1859984 0.00055177073
-0.033582907 -0.1859955 -0.0017731824
-0.024402738 -0.18600346 -0.043609671
-0.018792281 -0.18599607 -0.0021079963
0.0032723062 -0.18599942 -0.057711534
-0.050399855 -0.18242373 -0.072620876
-0.048334215 -0.18330139 -0.052131452
-0.030877754 -0.18490769 -0.072883978
-0.03357251 -0.1859979 -0.019922238
-0.02764222 -0.18600509 -0.033085294
-0.028983248 -0.18599772 -0.010393223
-0.01653681 -0.18599774 -0.057629097
-0.016709963 -0.18599324 -0.00015054047
0.0027867577 -0.18599264 -0.034283046
-0.034124162 -0.18599398 -0.010217084
-0.013500232 -0.18599138 -0.054330323
-0.0080486285 -0.18599236 -0.010613329
-0.0066149523 -0.18600927 0.00090836821
-0.0044169603 -0.18600592 -0.0068227574
0.0040187016 -0.18600117 -0.05852161
0.0040103719 -0.18600808 -0.026317643
0.0029015937 -0.18600394 -0.012694418
-0.026095493 -0.18507367 -0.061801024
-0.020743908 -0.18480706 -0.078783169
-0.014549004 -0.18282717 -0.092593342
-0.014790512 -0.18600187 -0.00318176
-0.0056413719 -0.18600807 -0.064136967
-0.021131596 -0.18600148 -0.022864059
-0.01259213 -0.18599497 -0.041627787
-0.008990285 -0.18599702 -0.066069849
-0.0075341067 -0.18600389 -0.055228926
0.00094994035 -0.18600266 -0.013904748
-0.0048388373 -0.18599066 -0.019850466
0.0066250279 -0.18633175 -0.064213037
0.01358566 -0.18512547 -0.082139403
0.011693528 -0.18169421 -0.10231202
0.010231609 -0.18276726 -0.094509147
0.01404733 -0.18600215 -0.01624174
0.019093495 -0.18599361 -0.055737365
0.016921589 -0.18599939 -0.003823431
0.0093627265 -0.18600769 -0.061385967
0.0085386401 -0.18599774 -0.046551127
0.014007343 -0.18599345 -0.030920275
0.015579333 -0.18600865 -0.048725829
0.022216279 -0.18600452 -0.040976793
0.041848097 -0.18527354 -0.06604223
0.049232099 -0.18455572 -0.069301374
0.01394792 -0.185994 -0.05860807
0.018203124 -0.18600804 -0.0070731263
0.02243525 -0.18599099 -0.06006673
0.020632898 -0.18600917 -0.0097929342
0.028756479 -0.18599071 -0.040701419
0.039498392 -0.18600875 -0.043018825
0.035836063 -0.1860076 -0.020407397
0.0064848168 -0.18600734 -0.056795258
0.013254412 -0.18600284 -0.021252444
0.015873238 -0.18600908 -0.011592837
0.058168206 -0.18244186 -0.076877207
0.064136922 -0.1853212 -0.05118027
0.064238563 -0.1822294 -0.078894086
0.074554637 -0.18115225 -0.076779775
0.027079882 -0.18600965 -0.026180208
0.02682646 -0.18600029 -0.017722771
0.033413108 -0.18600258 -0.016734058
0.041281775 -0.18600364 -0.039689098
0.043394238 -0.18599367 -0.025520757
0.020898316 -0.18600842 -0.043238793
0.039461821 -0.18599793 -0.0031277053
0.047928307 -0.18599007 -0.04019985
0.062174801 -0.18607654 -0.042721506
0.066020064 -0.18510529 -0.048556756
0.069835201 -0.18366805 -0.058951434
0.084686622 -0.18152788 -0.062180527
0.073287398 -0.18284579 -0.031815071
0.022640835 -0.18600856 -0.040954947
0.035588183 -0.18600817 -0.010392754
0.024990056 -0.18600976 -0.029949747
0.032982647 -0.18599798 -0.028193684
0.055843826 -0.18600887 -0.034451909
0.073253341 -0.18376715 -0.042574383
0.094085187 -0.1813717 -0.047597967
0.0083240867 -0.18599531 0.0024087494
0.063014194 -0.18600413 -0.019258933
0.010366002 -0.18599474 -0.021444207
0.063152939 -0.18599999 -0.026440129
0.062188361 -0.18599766 -0.016229834
0.061566435 -0.1860093 -0.0093641337
0.065000698 -0.18449736 -0.028327676
0.084379256 -0.1838606 -0.025346609
0.077921227 -0.18489179 -0.012983491
0.096041642 -0.18233082 -0.012130171
0.077486634 -0.18493485 -0.016296467
0.012683013 -0.18599196 -0.018206745
0.0128134 -0.18599649 0.0024234888
0.069051065 -0.18599001 0.0026091167
0.07264284 -0.18599139 -0.0075054234
0.072358437 -0.18600081 0.0017719469
0.08025708 -0.18395428 -0.012237358
0.088728048 -0.18348831 -0.010268685
0.099326365 -0.18217951 -0.007631998
0.034329418 -0.18600759 -0.0084528076
0.099339105 -0.1820412 0.017084206
0.031008679 -0.18600531 0.014496482
0.048931424 -0.18600819 0.017985186
0.062995799 -0.18600799 0.0099231005
0.037555676 -0.18599044 0.011509594
0.041605346 -0.18599366 0.014641768
0.083197035 -0.1836912 0.022700671
0.006412704 -0.18600416 0.014485077
0.012333574 -0.18599182 0.029386945
0.02054457 -0.1859909 0.020094706
0.067891344 -0.18509723 0.037775397
0.073971353 -0.1844185 0.041530404
0.068481945 -0.18474221 0.047386125
0.086635411 -0.18245293 0.04192555
0.067003757 -0.18332678 0.058463257
0.0055409372 -0.18599616 0.037372727
0.055191636 -0.18599506 0.020322992
0.033957541 -0.18599541 0.0076102228
0.053018294 -0.18600631 0.016082849
0.060658578 -0.18599199 0.038416654
0.051794432 -0.18312015 0.065041177
0.065663129 -0.18245427 0.071108073
0.034285173 -0.18600613 0.021631226
0.038587116 -0.18599771 0.040097009
0.041685406 -0.18600172 0.048232205
0.0053577754 -0.18599281 0.013351743
0.010367228 -0.18600518 0.026917309
0.032147028 -0.18599325 0.01784802
0.03311215 -0.18600853 0.024096031
0.035128918 -0.18600956 0.039123278
0.043120414 -0.18600948 0.025037037
0.048374649 -0.1859913 0.01499576
0.047041044 -0.18352568 0.081449978
0.056673333 -0.18424486 0.06091328
0.063369766 -0.18162657 0.082213208
0.042003822 -0.1807785 0.089597791
0.019959342 -0.18599603 0.030738309
0.03857439 -0.18600282 0.033968117
0.01122601 -0.18600686 0.019006433
0.018792348 -0.1860092 0.045925435
0.021037685 -0.18599643 0.049853452
0.026005914 -0.18600154 0.011805459
0.033948589 -0.18600258 0.050622821
0.03726542 -0.18599398 0.019518793
0.039767209 -0.1844418 0.075177535
0.02935751 -0.18382771 0.079111278
0.013402886 -0.18600327 0.022669951
0.034322195 -0.18600474 0.049235929
0.03087854 -0.18600841 0.064286865
0.011585386 -0.18600982 0.046702255
0.023303602 -0.18600447 0.029052898
0.021314528 -0.18600297 0.06936641
0.026243811 -0.18600655 0.063554555
0.027995195 -0.18599099 0.066447064
0.031161556 -0.18599239 0.015549745
0.010548479 -0.18509462 0.0709543
0.017223308 -0.18600056 0.064842634
0.0081877261 -0.1844624 0.082212567
0.014402268 -0.18316552 0.08975663
-0.0037324387 -0.18205868 0.099152304
-0.0076584327 -0.18462485 0.079836547
-0.0022402108 -0.18355982 0.082838677
-0.016300987 -0.18304951 0.093302235
-0.013784471 -0.18350847 0.089658722
-0.0097807702 -0.18180931 0.10117423
-0.017841924 -0.18482222 0.077456586
-0.019198038 -0.18440367 0.074989103
-0.019186167 -0.18289194 0.095642656
-0.010693068 -0.18599053 0.025862308
-0.0028116319 -0.18600354 0.062191784
0.0046206121 -0.18600641 0.064539164
-0.022673659 -0.18523374 0.073719822
-0.023021698 -0.18600328 0.028439825
-0.015221453 -0.18600252 0.011332798
-0.016353047 -0.18599589 0.052641273
0.0033397612 -0.18600354 0.043102
-0.049518961 -0.18286479 0.081560202
-0.011619173 -0.18600447 0.02089607
0.003455831 -0.18599074 0.062642917
-0.019928422 -0.18600784 0.011738187
-0.056622814 -0.18399158 0.067355394
-0.06868089 -0.18418181 0.057864666
-0.048766982 -0.18462402 0.07172206
-0.041183446 -0.18600738 0.024481202
-0.037024494 -0.18599923 0.040776219
-0.034958817 -0.18599215 0.0092338836
-0.029318431 -0.18600827 0.024052234
-0.020815309 -0.18599808 0.029329551
-0.015706589 -0.18600236 0.012290522
-0.014621845 -0.18599549 0.028211845
-0.0025566386 -0.18599132 0.030221162
0.0029940894 -0.1860026 0.006961402
-0.035433069 -0.18599373 0.040809814
-0.02737526 -0.18600917 0.053036809
-0.0048339479 -0.18599708 0.014292021
-0.0020273319 -0.18599735 0.029025169
-0.057574421 -0.18499535 0.064853773
-0.038108211 -0.18599665 0.035880055
-0.019166037 -0.18599112 0.0090625426
-0.019896468 -0.1859974 0.026101243
-0.010313823 -0.1860062 0.031481218
-0.0084186401 -0.18600558 0.0076620798
-0.053284634 -0.18599036 0.014510632
-0.023678096 -0.18599126 0.031213591
-0.065179922 -0.18253314 0.050812893
-0.070218794 -0.18502836 0.044435907
-0.06788332 -0.18536182 0.043591563
-0.053542528 -0.18599758 0.033254802
-0.024079161 -0.18600544 0.027022252
-0.014994265 -0.18599023 0.0061441977
-0.0089920601 -0.18600699 0.019956224
-0.0020207234 -0.18600956 0.028323552
-0.045951001 -0.18599942 0.0054642865
-0.030052137 -0.18599825 0.02969286
-0.011655328 -0.18599479 0.027350994
-0.0066804164 -0.18599993 0.011814816
-0.090785861 -0.16650701 0.044928495
-0.10398402 -0.14995883 0.040290568
-0.09615498 -0.16344242 0.044697978
-0.08321064 -0.15759018 0.069397435
-0.090948157 -0.16165195 0.058985766
-0.090272613 -0.15425083 0.062396135
-0.092778705 -0.15080233 0.061218422
-0.088111311 -0.15859196 0.062409453
-0.058304116 -0.15637492 0.091971874
-0.036866356 -0.14987138 0.10535336
-0.033700276 -0.14718479 0.10747477
-0.010357571 -0.15623476 0.10840925
-0.019704841 -0.15242989 0.10905019
-0.014205694 -0.16944413 0.097206287
0.0098037515 -0.16076496 0.10929689
0.036902256 -0.16591379 0.095355153
0.022846304 -0.16687106 0.097917646
0.024728818 -0.15507433 0.10662489
0.029218337 -0.1542362 0.10608415
0.066170745 -0.16951169 0.070562005
0.051826086 -0.16547573 0.086561054
0.059915941 -0.16658488 0.082091264
0.081710435 -0.16073391 0.069169827
0.08288122 -0.15534209 0.071246698
0.081304863 -0.16398755 0.066237688
0.082508616 -0.16014223 0.073893912
0.086680815 -0.16086602 0.06709449
0.077477694 -0.14841434 0.081087239
0.089499094 -0.16581659 0.049111329
0.090099908 -0.15872185 0.05932714
0.093715653 -0.16615036 0.038250506
0.097472377 -0.16956535 0.019143771
0.096343063 -0.16938676 0.016242493
0.10409961 -0.16151369 0.022755882
0.10814266 -0.14986323 0.027950263
0.10853426 -0.16091454 -0.015459565
0.10915716 -0.1489927 -0.02557441
0.093339242 -0.16727178 -0.036458224
0.10927934 -0.15003674 -0.022013268
0.1046244 -0.15090239 -0.037725344
0.087189026 -0.16551377 -0.054086015
0.09574943 -0.14744365 -0.059229977
0.073798753 -0.15810367 -0.079303294
0.076654032 -0.15838405 -0.076810271
0.062471945 -0.16954392 -0.073485643
0.067157969 -0.17106767 -0.069756977
0.066146761 -0.17370035 -0.062298954
0.045849368 -0.16550358 -0.090363763
0.063491292 -0.16051961 -0.086427547
0.030942084 -0.16363809 -0.10122723
0.012849171 -0.15104292 -0.1103246
0.019105496 -0.1663872 -0.099817619
0.018070502 -0.16265139 -0.10559727
0.012032792 -0.16882661 -0.097445324
0.018766426 -0.17088145 -0.09314803
-0.0092017194 -0.15574338 -0.10873488
-0.011267194 -0.16629432 -0.10073293
-0.0086836359 -0.16619346 -0.10114504
-0.0097332522 -0.16029474 -0.10824405
-0.037196618 -0.15367767 -0.10363147
-0.038878515 -0.17014569 -0.088086963
-0.037297875 -0.16978829 -0.08910609
-0.029668275 -0.16125658 -0.10344154
-0.012325065 -0.16855375 -0.095889837
-0.017595721 -0.17174684 -0.091456376
-0.014151921 -0.17223741 -0.091356434
-0.023925416 -0.15779974 -0.10562669
-0.059319962 -0.15332344 -0.093164496
-0.05222838 -0.15132873 -0.097856484
-0.049318984 -0.17192608 -0.078919187
-0.036080088 -0.16962662 -0.089456744
-0.034793891 -0.16962051 -0.089837834
-0.046781644 -0.16106245 -0.096356452
-0.043603159 -0.14683838 -0.10401182
-0.068163462 -0.16708696 -0.073668435
-0.066981971 -0.16273794 -0.083135597
-0.05081052 -0.16245346 -0.093932569
-0.089856707 -0.15039843 -0.065998368
-0.084251866 -0.15079172 -0.072980285
-0.10029175 -0.14940736 -0.049369667
-0.093025751 -0.16028443 -0.053415116
-0.092101209 -0.17079486 -0.022120327
-0.089722537 -0.17048028 -0.031624209
-0.095779583 -0.16635871 -0.038941551
-0.1039677 -0.14916296 -0.041221432
-0.10689571 -0.14560258 -0.038023885
-0.10074516 -0.16601776 -0.015241916
-0.095641166 -0.16801991 -0.021826237
-0.10652871 -0.16200313 0.0052143224
-0.10981394 -0.15404505 -0.0035511081
-0.10552353 -0.15193075 0.033452421
-0.10189279 -0.16466956 0.028276501
-0.10711126 -0.13083732 0.052755058
-0.10896579 -0.12838644 0.050439276
-0.088574082 -0.12559469 0.082801096
-0.095590644 -0.12562583 0.074705906
-0.078452863 -0.12655176 0.091650791
-0.086503506 -0.13949336 0.077080697
-0.075957119 -0.14153886 0.086505562
-0.049811881 -0.13287452 0.10756795
-0.056035195 -0.13392842 0.10372935
-0.063782774 -0.14493841 0.093908019
-0.060085963 -0.13179603 0.10268438
-0.031648766 -0.11868396 0.11950127
-0.035110906 -0.11998346 0.11794591
-0.019254638 -0.12418972 0.12017807
-0.030297955 -0.12374727 0.11800683
0.016025014 -0.12229691 0.1212286
0.040955093 -0.12135545 0.11565381
0.053354327 -0.14076141 0.1020847
0.072555423 -0.13985734 0.089907818
0.067950524 -0.12704578 0.099466145
0.079553969 -0.14496666 0.080964856
0.10393952 -0.13607685 0.05383002
0.11004896 -0.13675727 0.039438184
0.11685377 -0.12709974 0.029823704
0.11805473 -0.13048932 -0.018469485
0.12312441 -0.11979561 0.00051948649
0.12433281 -0.11653345 0.0058068535
0.11751096 -0.12991528 -0.021215225
0.10782795 -0.13041753 -0.051336881
0.10842799 -0.13506868 -0.045152146
0.093258038 -0.13160336 -0.073676318
0.095447265 -0.13874951 -0.065920472
0.078556806 -0.1397752 -0.08500579
0.085583173 -0.13926451 -0.078139558
0.085704684 -0.13153145 -0.082291961
0.087148085 -0.12274672 -0.085434973
0.056450021 -0.12360123 -0.10785536
0.059960958 -0.14128712 -0.098283462
0.070888594 -0.1227126 -0.099411175
0.042276323 -0.12458625 -0.113989
0.033240221 -0.14693898 -0.10769989
0.042215586 -0.13768147 -0.10850665
0.010021058 -0.11773414 -0.12350761
0.019154917 -0.12993647 -0.11804592
0.013927494 -0.13725355 -0.11577291
0.023659384 -0.14056778 -0.11280271
0.025840998 -0.14045933 -0.1124058
0.028503291 -0.13055103 -0.11590555
0.021613555 -0.12907629 -0.11774121
0.033962786 -0.12994899 -0.11494605
-0.0060888296 -0.12471089 -0.1212984
-0.019799167 -0.148662 -0.11063642
-0.016817529 -0.13143012 -0.11784288
-0.0023946946 -0.14365335 -0.11403491
-0.00093370676 -0.13292815 -0.11831205
0.0016808435 -0.13028526 -0.11936612
0.0063732956 -0.13578117 -0.11714434
0.00636453 -0.13070691 -0.11918687
-0.0085000908 -0.12895207 -0.11976989
-0.0057503828 -0.12330486 -0.12184446
-0.009976997 -0.11585475 -0.12460862
-0.0085903844 -0.12932065 -0.11961687
-0.043901443 -0.12237206 -0.11438491
-0.03040866 -0.13448499 -0.11375849
-0.030094249 -0.14200352 -0.11069726
-0.033579387 -0.14126126 -0.1099612
-0.030966712 -0.13111901 -0.11498214
-0.047145169 -0.1363437 -0.10704476
-0.048878837 -0.12121811 -0.1124625
-0.071482442 -0.12954336 -0.095938437
-0.072550476 -0.14543208 -0.087049916
-0.073107749 -0.14707702 -0.085753322
-0.072694249 -0.13741776 -0.091578454
-0.069683813 -0.13806883 -0.093281604
-0.064665958 -0.14269148 -0.094400331
-0.098251745 -0.12304635 -0.072512999
-0.092073984 -0.11963552 -0.081974998
-0.092280932 -0.13679668 -0.071618438
-0.070901603 -0.1469284 -0.088476956
-0.089483328 -0.12308675 -0.08294788
-0.10615806 -0.12591504 -0.057790816
-0.10473824 -0.14045526 -0.048652936
-0.10432681 -0.13173074 -0.057712741
-0.098891303 -0.14487195 -0.056370962
-0.11686421 -0.12409449 -0.033429969
-0.10707174 -0.14243647 -0.041442234
-0.10754921 -0.13368963 -0.048657913
-0.11837586 -0.13214216 -0.0079118228
-0.11741872 -0.13326557 -0.013145349
-0.115137 -0.13190132 -0.029631581
-0.11203177 -0.14705893 0.01202252
-0.11381292 -0.14419925 2.5450621e-05
-0.11278464 -0.14674567 -0.0061376304
-0.12092745 -0.1257291 -0.0016256693
-0.12109288 -0.12529844 0.0002325884
-0.12042712 -0.12715673 0.0081497338
-0.11288529 -0.13013445 0.038906716
-0.11164447 -0.1370953 0.033768561
-0.11235869 -0.13340853 0.036520164
-0.12133949 -0.092345662 0.051341414
-0.12175141 -0.080541991 0.059054658
-0.10130999 -0.10144404 0.080158211
-0.097279668 -0.096719153 0.087189816
-0.097822674 -0.11393217 0.078027643
-0.095527127 -0.1118738 0.08189512
-0.081884496 -0.090898201 0.1037489
-0.079305001 -0.080125488 0.10982247
-0.07364466 -0.10965113 0.10323879
-0.064576268 -0.085956775 0.11689241
-0.062459361 -0.10659206 0.11118191
-0.071403332 -0.11862465 0.10092746
-0.064716436 -0.11416102 0.10717134
-0.067850538 -0.10644176 0.10806487
-0.066902794 -0.093620069 0.11331387
-0.013455637 -0.092631362 0.13097024
-0.030636802 -0.10234913 0.1252905
0.018316004 -0.086578317 0.13222148
-0.0015259164 -0.11260979 0.12555328
-0.00068230688 -0.10394591 0.12836653
-0.0032708535 -0.091170475 0.13207605
0.04311078 -0.10470454 0.12080841
0.056263693 -0.11472554 0.11149679
0.058818199 -0.086402267 0.12007235
0.084834881 -0.10696413 0.095187239
0.079024382 -0.11268214 0.097544864
0.072113626 -0.11156147 0.10322276
0.11135563 -0.092710808 0.070309095
0.12895244 -0.081794903 0.03902014
0.125434 -0.11053832 0.014263603
0.12814596 -0.1000462 0.020237099
0.13191213 -0.085185796 0.022475049
0.1313348 -0.081812121 0.030164376
0.13124993 -0.092324071 -0.011561686
0.12529081 -0.11348382 -0.0059996597
0.12586066 -0.11166252 0.0010077803
0.1273437 -0.10707298 -0.0016533767
0.1244018 -0.10783069 -0.027712781
0.11027604 -0.11439354 -0.05879014
0.11009488 -0.10662477 -0.064505495
0.11758007 -0.10491175 -0.050762203
0.12155264 -0.083807781 -0.057138916
0.12692477 -0.081409171 -0.045839749
0.12079517 -0.08253213 -0.059928957
0.10305945 -0.080874257 -0.087203629
0.08669243 -0.082378343 -0.10290565
0.096963726 -0.11081889 -0.081394576
0.098877691 -0.10936933 -0.080119655
0.09190014 -0.096780971 -0.092628188
0.093842931 -0.085660852 -0.095150366
0.063428476 -0.091652736 -0.11570541
0.068506636 -0.098551475 -0.11075559
0.075931296 -0.10270405 -0.10410028
0.043954298 -0.087607257 -0.12571757
0.038599703 -0.10359964 -0.12254827
0.01576072 -0.10337649 -0.12760574
0.026647985 -0.081240825 -0.13221967
-0.0053677252 -0.10474961 -0.12831827
-0.0070984983 -0.084245436 -0.13404796
0.0051930146 -0.08120013 -0.13488275
-0.034318335 -0.084824689 -0.12945868
-0.039634153 -0.10639851 -0.12128223
