# .PCD v0.7 - Point Cloud Data file format
VERSION 0.7
FIELDS x y z
SIZE 4 4 4
TYPE F F F
COUNT 1 1 1
WIDTH 1424
HEIGHT 1
VIEWPOINT 0 0 0 1 0 0 0
POINTS 1424
DATA ascii
-0.78575784 0.7525304 -0.013146371
-0.79741931 0.76133001 0.029325038
-0.76126742 0.76945829 0.075095177
-0.76791847 0.76270354 0.12628597
-0.78058946 0.78634942 0.1927886
-0.75887007 0.78209007 0.24581471
-0.77634066 0.77022576 0.26494077
-0.78173459 0.77080441 0.31594086
-0.78537142 0.77166933 0.37838426
-0.77816319 0.78348333 0.41008914
-0.75621593 0.76730454 0.49493992
-0.80244005 0.77241981 0.52594668
-0.77173889 0.79143959 0.5500679
-0.75300968 0.74692357 0.62020493
-0.79915398 0.76612723 0.66303635
-0.75300753 0.74806261 0.73874235
-0.78613466 0.77723879 0.76705325
-0.78670037 0.75854886 0.84862119
-0.768112 0.79623097 -0.18507501
-0.79076344 0.80220228 -0.10489663
-0.77705836 0.8050577 -0.082976073
-0.79829282 0.78631026 -0.015608639
-0.78772932 0.78837222 0.042832822
-0.81740892 0.78948754 0.081583232
-0.79261768 0.81562823 0.13139522
-0.81300426 0.79584533 0.18976144
-0.79071808 0.79013085 0.24748532
-0.80861014 0.77719986 0.25184518
-0.8176738 0.81744057 0.32235038
-0.8028571 0.80962414 0.35457698
-0.77184093 0.79783612 0.42345506
-0.81770289 0.79238379 0.49969542
-0.78348291 0.80485582 0.52339554
-0.80233419 0.82570243 0.56296229
-0.79747593 0.80112505 0.62490523
-0.79559398 0.80803585 0.69965971
-0.81291693 0.80416542 0.70427763
-0.7984705 0.78212363 0.76288497
-0.79067588 0.83153498 0.81165838
-0.85396373 0.85367364 -0.18202323
-0.80522841 0.83907515 -0.10635933
-0.8177042 0.87901938 -0.088590324
-0.84177911 0.84517819 -0.030304968
-0.83584267 0.87100434 0.0082802773
-0.80998552 0.84062058 0.094820499
-0.80370325 0.86078876 0.1195123
-0.84571254 0.83943152 0.18114403
-0.81082201 0.84217954 0.22940558
-0.814022 0.83587599 0.28624961
-0.81045532 0.8641181 0.3219398
-0.82218748 0.85611224 0.37167177
-0.81896979 0.83823043 0.40028495
-0.8165921 0.83048022 0.45050889
-0.80679595 0.86631203 0.5324201
-0.79753667 0.85037661 0.55477238
-0.81067884 0.83097464 0.62775618
-0.79753685 0.84320283 0.66234708
-0.79135299 0.84059227 0.72976577
-0.8060981 0.85089993 0.757025
-0.8481307 0.85809612 0.82791835
-0.84220803 0.84148997 -0.182372
-0.81437451 0.86104733 -0.13215464
-0.83227146 0.87325972 -0.066615909
-0.83120543 0.85448277 -0.046741426
-0.82933891 0.85299909 0.0069879293
-0.84685719 0.85144502 0.058828697
-0.82493508 0.82621318 0.13252297
-0.83628541 0.86363643 0.17456681
-0.85270858 0.85857677 0.24860448
-0.80355227 0.83485067 0.25368857
-0.81487787 0.86815542 0.34178567
-0.79741991 0.83945346 0.37771815
-0.82697165 0.86015064 0.44715852
-0.79789191 0.85486269 0.45255679
-0.8009057 0.84106112 0.53006995
-0.8288483 0.86401844 0.59055591
-0.8147881 0.86437809 0.60247827
-0.83036023 0.83390725 0.6603418
-0.81123435 0.84364986 0.72448277
-0.81606603 0.8819772 0.79656541
-0.80430335 0.84114832 0.82839209
-0.75462687 0.87854218 -0.16136771
-0.80193901 0.88781512 -0.10567179
-0.79165924 0.86569685 -0.066442639
-0.75973761 0.87070793 -0.045083106
-0.80176961 0.88369226 0.016456246
-0.80607224 0.87212604 0.094957829
-0.78092593 0.89805555 0.11135831
-0.78806669 0.89058721 0.15600999
-0.77275652 0.86107922 0.2028105
-0.7605983 0.86121082 0.29156801
-0.76231068 0.85885626 0.31270802
-0.77935731 0.89887547 0.39785564
-0.75617498 0.88018334 0.42605335
-0.77680659 0.88249797 0.4671503
-0.76163173 0.86973518 0.54863042
-0.77847332 0.90018046 0.58615452
-0.77460718 0.86584461 0.61392903
-0.76640409 0.85889906 0.67105031
-0.77252257 0.85626489 0.73202348
-0.81297916 0.88372898 0.77455735
-0.75634861 0.8763532 0.81110579
-0.74780023 0.90240884 -0.18563253
-0.71903813 0.89169574 -0.10284826
-0.75203663 0.9156971 -0.065117508
-0.75069666 0.87530982 -0.01807043
-0.72733939 0.89962649 0.022153318
-0.71938753 0.90664315 0.054936334
-0.75917679 0.90566182 0.10966012
-0.74758202 0.90093791 0.18121815
-0.74967825 0.89858705 0.22798391
-0.75300258 0.91676646 0.29120171
-0.73223937 0.91292799 0.33396101
-0.72882867 0.931566 0.39551783
-0.73262668 0.91968518 0.43038636
-0.74135447 0.92367733 0.49041814
-0.74912405 0.87669015 0.5134356
-0.75098366 0.92035091 0.58829868
-0.71617174 0.89087152 0.62376773
-0.7575711 0.89889336 0.66713309
-0.74163461 0.89944744 0.71900749
-0.73817414 0.8830936 0.75356758
-0.75149029 0.9131183 0.80148339
-0.706146 0.91654134 -0.18789378
-0.70380914 0.92557561 -0.10120776
-0.69585323 0.92728299 -0.060708791
-0.67799902 0.93216419 -0.029596806
-0.71039999 0.91349053 0.011823177
-0.6849072 0.94212985 0.099560171
-0.69573855 0.92553085 0.10375513
-0.68137932 0.94593233 0.1869511
-0.70881611 0.92049098 0.24691539
-0.68259323 0.95236909 0.29122499
-0.68962562 0.95421308 0.30974072
-0.6852622 0.92474854 0.36897868
-0.67930675 0.93228257 0.44450414
-0.68412769 0.94933802 0.45074272
-0.67354548 0.91714048 0.50836611
-0.70732999 0.94549328 0.57714963
-0.67840385 0.90873504 0.63743985
-0.68902904 0.93244141 0.69448179
-0.6985696 0.89997572 0.71537519
-0.70339876 0.93530482 0.7640115
-0.68684936 0.95729613 0.82887894
-0.6484136 0.95716625 -0.18731254
-0.66163361 0.92262769 -0.13315362
-0.64241379 0.94039893 -0.058609784
-0.64126384 0.97505617 -0.049078196
-0.62464339 0.93845403 0.010185778
-0.6409654 0.958336 0.083807886
-0.62731028 0.9472326 0.10605001
-0.65291917 0.96944392 0.17620631
-0.64519638 0.98069561 0.21089327
-0.62080407 0.9429884 0.29417402
-0.6498493 0.94619864 0.3417514
-0.65991586 0.94306332 0.36910093
-0.64590997 0.93333095 0.42513734
-0.65019417 0.92881793 0.47157824
-0.67474651 0.95512885 0.54352379
-0.64070773 0.96186411 0.57157636
-0.67095518 0.96186382 0.64324009
-0.64117807 0.93013608 0.67290664
-0.65102565 0.94659001 0.73611051
-0.64356947 0.94497263 0.7960577
-0.6580627 0.95312506 0.82634902
-0.63706124 0.9807868 -0.15540582
-0.58588719 0.96582758 -0.14653161
-0.6223051 0.95377314 -0.098346621
-0.60716164 0.9627769 -0.0067663789
-0.59931391 0.97519779 0.031617254
-0.61838084 0.96825987 0.079882741
-0.61454916 0.96983379 0.14223273
-0.58250803 0.97199333 0.19673547
-0.62598085 0.98277605 0.22976211
-0.59848475 0.98070204 0.28716105
-0.6232999 0.98904794 0.34343728
-0.62320006 0.95914322 0.36679557
-0.60674804 0.94690955 0.42981341
-0.59118623 0.97997928 0.47537178
-0.6062417 0.96809208 0.51294363
-0.63111234 0.98898768 0.57674158
-0.58371353 0.97667176 0.60285962
-0.6264562 0.96509618 0.65424854
-0.60018164 0.95439607 0.70728374
-0.60908318 0.96914971 0.75616908
-0.59246165 0.9804852 0.82667136
-0.53688645 0.99301368 -0.18231803
-0.56097353 0.98002571 -0.14191738
-0.56893194 1.0155352 -0.056248337
-0.56206918 0.9925797 -0.026773185
-0.5722481 0.96856004 0.0071169734
-0.54305667 0.98785359 0.063909605
-0.5496282 0.99924171 0.12282626
-0.57416403 1.0040531 0.1919603
-0.55743599 1.0086372 0.22856787
-0.54893363 1.0163361 0.29829264
-0.55384552 1.0202701 0.3331176
-0.56782264 1.0196751 0.3523055
-0.55470598 0.98073572 0.40706682
-0.54858601 0.984173 0.45241356
-0.5447284 0.98812658 0.51539934
-0.54848146 1.0190493 0.56992912
-0.55071038 0.99230552 0.62655246
-0.56771225 1.0104835 0.65399802
-0.57365674 1.0172888 0.72439998
-0.57854837 0.99168319 0.78746843
-0.53844488 0.99941647 0.81946409
-0.53209776 0.99652207 -0.15049306
-0.52378577 1.0044711 -0.11575457
-0.54928195 1.0282918 -0.078545719
-0.49936959 1.035153 -0.039241493
-0.52443868 1.0380793 0.022808641
-0.51526815 1.024086 0.070147589
-0.53245187 1.0190016 0.11610867
-0.53299004 1.0459354 0.18256843
-0.54738218 1.0238721 0.20154655
-0.53152823 1.0240344 0.2544806
-0.53563517 1.0354036 0.32327297
-0.51792878 1.0092428 0.38876525
-0.49484894 1.0216203 0.42212155
-0.52765965 0.99807453 0.49525791
-0.52501279 1.0444455 0.53384984
-0.49838826 1.0364182 0.59321272
-0.51454729 1.0020207 0.61276054
-0.527511 1.0413493 0.69988084
-0.52584726 1.0228707 0.72261894
-0.50794035 1.0403348 0.75351107
-0.53407502 1.0456327 0.82845223
-0.44936904 1.0438064 -0.17178696
-0.47020146 1.0504051 -0.12188077
-0.49612036 1.0662951 -0.063963801
-0.48685607 1.0166675 -0.043394715
-0.47564557 1.0344534 0.046134263
-0.45955202 1.0631942 0.087836444
-0.49076173 1.0706179 0.12482688
-0.46192643 1.0481106 0.17694852
-0.4665474 1.0763726 0.24909967
-0.49640867 1.0400144 0.2971057
-0.45040348 1.0525857 0.3227922
-0.4966341 1.0348313 0.35342282
-0.48202702 1.0294219 0.40966249
-0.49874398 1.0570947 0.4938246
-0.46987543 1.0597169 0.52648729
-0.48767874 1.063271 0.59578621
-0.46932557 1.0372882 0.62759811
-0.45092961 1.0489352 0.69457674
-0.48456356 1.0712758 0.70713818
-0.455511 1.0369912 0.76264185
-0.47993401 1.0728059 0.830428
-0.42517993 1.0641696 -0.17459783
-0.44540033 1.085289 -0.11850461
-0.44873288 1.0699502 -0.06341365
-0.45895568 1.0808975 -0.041540056
-0.41491166 1.0574738 0.031447649
-0.44566789 1.0869408 0.074424297
-0.40489158 1.0724313 0.14529565
-0.43386945 1.0913728 0.15089603
-0.43681106 1.0516821 0.22248015
-0.42029563 1.096391 0.29879272
-0.40777484 1.0633215 0.3071121
-0.44614151 1.095333 0.39313611
-0.40892467 1.0748953 0.41126058
-0.42998949 1.1013957 0.49067956
-0.44321534 1.0773889 0.50010693
-0.46634558 1.081163 0.56898618
-0.4461073 1.0916214 0.63867366
-0.43199113 1.0894709 0.66894114
-0.41926673 1.0913876 0.72346824
-0.44770864 1.0729861 0.77857065
-0.45831057 1.0890399 0.8264249
-0.3657065 1.0915955 -0.18582779
-0.39030147 1.1110266 -0.14106527
-0.40672955 1.1134937 -0.050653636
-0.36890236 1.0888286 -0.010023415
-0.39847377 1.0884125 0.040567338
-0.38790476 1.0778828 0.059661239
-0.37710673 1.0794984 0.14003116
-0.40782586 1.1041632 0.19621198
-0.4028134 1.0850646 0.22189473
-0.39142781 1.0912038 0.2760565
-0.40246955 1.1181525 0.32937017
-0.36969128 1.0919422 0.35709125
-0.36562803 1.0970244 0.43200973
-0.38286373 1.0853264 0.45400304
-0.39487985 1.1137481 0.54658079
-0.407747 1.1067652 0.58103359
-0.3864125 1.1110599 0.62331098
-0.39870644 1.0818017 0.66788244
-0.38896683 1.1038423 0.71243858
-0.40079924 1.0839989 0.75803596
-0.36719826 1.1002914 0.84426105
-0.34701744 1.1424905 -0.18978155
-0.33856145 1.1521916 -0.141058
-0.33201844 1.135155 -0.096859515
-0.32985809 1.1072365 -0.0043408871
-0.34227133 1.1376894 0.024718612
-0.35124558 1.1204995 0.087000385
-0.36499572 1.1334413 0.11018524
-0.33462253 1.1128228 0.15424986
-0.34146979 1.1530703 0.21544644
-0.37931672 1.1355606 0.27635127
-0.3272953 1.1148635 0.33766291
-0.35186991 1.1206759 0.39064163
-0.3270441 1.1222394 0.41010562
-0.3407836 1.1519018 0.48563236
-0.33761451 1.1238761 0.51030672
-0.36198318 1.1250703 0.56264269
-0.36711976 1.1293057 0.60399795
-0.37766066 1.1323187 0.68426442
-0.34757414 1.1321054 0.71416068
-0.33853945 1.134241 0.79886281
-0.33182344 1.1275524 0.82089037
-0.32101575 1.1552411 -0.15612653
-0.31133506 1.1637563 -0.12716377
-0.30995384 1.156173 -0.095451921
-0.32368356 1.1426649 -0.014530122
-0.3214736 1.148752 0.026584476
-0.3127448 1.1369001 0.090635821
-0.32027093 1.1594089 0.13633709
-0.29202107 1.1581453 0.1591375
-0.3004767 1.1727104 0.21022464
-0.30164772 1.1619596 0.25365338
-0.31826785 1.1297097 0.34005862
-0.32115209 1.1507256 0.39971906
-0.27935556 1.151664 0.40457791
-0.29642025 1.1782759 0.45635128
-0.2918154 1.1296395 0.53074521
-0.3017185 1.1410166 0.57345724
-0.32797822 1.1490288 0.64253068
-0.30212107 1.1308801 0.65427482
-0.30601248 1.1402828 0.73111963
-0.33509606 1.1610914 0.79532081
-0.29495499 1.1358165 0.84952557
-0.23869392 1.1722345 -0.15610272
-0.27420053 1.1879349 -0.11517155
-0.23264626 1.1663791 -0.056497663
-0.26021427 1.1986755 -0.028979957
-0.25875679 1.1944138 0.041558444
-0.27848187 1.1935104 0.065953404
-0.25545552 1.2064079 0.14340113
-0.24875391 1.1758776 0.17065917
-0.24508035 1.1611629 0.21774226
-0.25982645 1.1966937 0.28186533
-0.25759426 1.1525067 0.34633857
-0.27237606 1.1570251 0.39907983
-0.24033338 1.1868917 0.43314558
-0.28850403 1.17515 0.45269161
-0.26506999 1.1520606 0.5024426
-0.23511091 1.1697766 0.57329106
-0.24642691 1.187072 0.60628879
-0.2622101 1.1768119 0.65338928
-0.28145501 1.1862931 0.72322261
-0.26104245 1.1542004 0.76345235
-0.27621052 1.1718011 0.81085485
-0.21648118 1.1957494 -0.18158445
-0.21168211 1.2126026 -0.14909789
-0.20806286 1.2274005 -0.068978727
-0.19792998 1.1990204 -0.025810659
-0.22947636 1.1911879 0.021956712
-0.19634759 1.1851776 0.078518793
-0.21089974 1.2261126 0.13050462
-0.22472385 1.1789756 0.18601447
-0.22859043 1.221127 0.20269123
-0.2247169 1.2170037 0.25573319
-0.22087005 1.2000567 0.32740048
-0.24006638 1.1910909 0.39674711
-0.2189171 1.2204201 0.41856894
-0.18633598 1.1939009 0.48056379
-0.21452096 1.1904013 0.50239217
-0.23847899 1.201903 0.5574975
-0.24368337 1.1990771 0.64771223
-0.23788843 1.2024815 0.65308809
-0.18627191 1.1895825 0.72566819
-0.19561729 1.1979345 0.78982544
-0.21724471 1.1754805 0.83794874
-0.18468311 1.2476895 -0.15559763
-0.17603314 1.213774 -0.11235711
-0.145549 1.2192864 -0.087386161
-0.16344294 1.2160012 -0.028470218
-0.18120497 1.234535 0.0046784282
-0.17772976 1.2071598 0.054740399
-0.1679602 1.2260301 0.14718068
-0.16874883 1.2294941 0.15660195
-0.19156453 1.2125095 0.2359212
-0.16458589 1.2234962 0.29134992
-0.18593386 1.2074034 0.33487126
-0.17617097 1.2185786 0.39421159
-0.1894812 1.2280166 0.40614772
-0.19604167 1.2369465 0.4879916
-0.14885125 1.2278228 0.52314138
-0.18441615 1.2203671 0.55030537
-0.17357931 1.2183834 0.60104227
-0.16753817 1.207083 0.6652149
-0.1854907 1.2066653 0.73698378
-0.1975297 1.2395883 0.79683423
-0.16204199 1.2530737 0.83857888
-0.1383259 1.2525154 -0.17602903
-0.11331933 1.2641608 -0.10279655
-0.12023332 1.2304173 -0.086509407
-0.15084353 1.2670188 -0.041100591
-0.14828044 1.248402 0.043082833
-0.10051184 1.2408191 0.08434625
-0.13032568 1.2321316 0.13743736
-0.12941951 1.2594477 0.15082736
-0.15382558 1.2565626 0.24761027
-0.1447252 1.2447741 0.28421867
-0.14326125 1.2464823 0.32892862
-0.12357714 1.2784734 0.35797131
-0.12500679 1.2792828 0.42412534
-0.11100309 1.2584395 0.49551097
-0.13628092 1.2404261 0.50276572
-0.12428843 1.2687279 0.5606004
-0.15819982 1.26041 0.61779612
-0.14280087 1.2373751 0.66856116
-0.10808396 1.2489642 0.70106196
-0.11973461 1.2765698 0.76903355
-0.13565153 1.2369674 0.81251717
-0.069479279 1.2850484 -0.19927397
-0.066111796 1.2606177 -0.13986921
-0.098689578 1.2524738 -0.0542925
-0.063156508 1.2802289 -0.020338207
-0.094580285 1.2599343 0.032338798
-0.064026497 1.2808726 0.094798505
-0.10048958 1.2499191 0.13785884
-0.10088813 1.2481284 0.18558818
-0.11057772 1.2832218 0.20661095
-0.1133404 1.2813473 0.25195116
-0.099886976 1.2738326 0.30526116
-0.088862412 1.2875507 0.37582165
-0.06261041 1.2612509 0.43602896
-0.087164305 1.2930715 0.49730104
-0.10023158 1.2895305 0.52558994
-0.09432786 1.2479134 0.56772852
-0.085908435 1.2613345 0.63631183
-0.091866188 1.2883554 0.68063641
-0.093180887 1.2605349 0.73551142
-0.074863039 1.2826859 0.78978211
-0.097301684 1.2858849 0.81444323
-0.060963087 1.3139062 -0.19728512
-0.050658546 1.308635 -0.1242969
-0.022054903 1.3106982 -0.091876179
-0.026308082 1.2883333 -0.0023079515
-0.029299282 1.3152405 0.024082839
-0.04972937 1.3174334 0.078771919
-0.031731687 1.3091574 0.10933799
-0.028843485 1.2945849 0.15671642
-0.055525087 1.2747962 0.23044808
-0.067616217 1.3028009 0.28898886
-0.054037623 1.3179075 0.30138752
-0.042698435 1.3294935 0.36682734
-0.04266607 1.2971989 0.4165999
-0.040545546 1.2835957 0.4990429
-0.038267009 1.3020492 0.52875674
-0.04842218 1.3123673 0.55361056
-0.0597248 1.2920034 0.61783934
-0.017894499 1.2949451 0.66764098
-0.039418124 1.3265401 0.71689349
-0.021319531 1.3005452 0.75116354
-0.057200752 1.2728808 0.84009564
-0.0017725155 1.3246601 -0.15670061
0.0084109679 1.3124212 -0.10645437
-0.013575815 1.330861 -0.075708866
-0.0028136298 1.344887 -0.0410586
0.018655308 1.3395191 0.040291131
0.025642194 1.324779 0.079801098
-0.0022374615 1.3423567 0.12280476
0.012036361 1.3508108 0.19429624
0.0080042556 1.3139328 0.23600855
-0.012535535 1.2983804 0.27255622
0.0036074892 1.2998447 0.30347615
-0.0017212555 1.3235575 0.39755988
0.0007141307 1.3117511 0.41141331
-0.0020012185 1.3153137 0.47157168
-0.0064971074 1.3411858 0.51044619
0.012081064 1.3347448 0.57264996
0.0031560734 1.3207594 0.61888361
0.023634173 1.3248564 0.68704224
-0.00795459 1.3349602 0.7106235
0.0058579519 1.3577504 0.77550501
-0.0077160224 1.33823 0.80236667
0.048982151 1.3335829 -0.15754008
0.029650129 1.3366257 -0.10641938
0.045411833 1.3683871 -0.051178068
0.050213523 1.3561691 -0.017091393
0.050930537 1.3279823 0.010357916
0.032791324 1.3345693 0.069273755
0.017534532 1.3539214 0.11876051
0.024900742 1.330389 0.17687649
0.024101026 1.3656714 0.24085595
0.051261671 1.3572583 0.29439661
0.046538718 1.3447099 0.33871549
0.069346614 1.3439462 0.39285368
0.050904877 1.3475803 0.41733247
0.06746269 1.3552345 0.48560917
0.042690225 1.3567251 0.54319692
0.041757293 1.3325382 0.57057226
0.048657961 1.3561722 0.64509153
0.056269206 1.340951 0.67158896
0.023713954 1.3619598 0.72482604
0.035909958 1.3690768 0.75571519
0.053769179 1.3302156 0.81384981
-0.81781089 0.85563034 -0.17061588
-0.81850004 0.84831369 -0.12935978
-0.79409015 0.83934963 -0.086067438
-0.80844474 0.84374893 -0.024662644
-0.82768959 0.84111112 0.024714559
-0.83235908 0.82138652 0.067929015
-0.81175148 0.84182501 0.12769273
-0.83963943 0.84785366 0.190689
-0.81058526 0.85168886 0.21343598
-0.84844887 0.84811914 0.2687526
-0.82127368 0.86754733 0.33531147
-0.82878208 0.82522756 0.39561096
-0.80639827 0.84982061 0.43994498
-0.83917445 0.85967582 0.46021181
-0.82548821 0.86466491 0.5402509
-0.83181912 0.8209554 0.59750175
-0.8358742 0.82350749 0.64387858
-0.83019257 0.8397854 0.68435645
-0.80958015 0.83770353 0.73181331
-0.83001411 0.86204034 0.78606635
-0.84208971 0.86441165 0.83833748
-0.76824129 0.87704843 -0.16250759
-0.77006984 0.87588203 -0.11506587
-0.78575802 0.858127 -0.073957473
-0.77815509 0.8603459 -0.023497254
-0.76713425 0.88615942 0.03314665
-0.77247572 0.89810181 0.074423701
-0.77523202 0.89533406 0.12345527
-0.77087575 0.86977059 0.17427668
-0.77046949 0.87645531 0.24934262
-0.79617941 0.88174325 0.27637824
-0.76478386 0.88080758 0.33530426
-0.76154673 0.89165813 0.37532789
-0.77879798 0.89741015 0.42483613
-0.78342879 0.89460111 0.46200547
-0.80044401 0.86641747 0.54842734
-0.76797438 0.85927689 0.59092033
-0.78632879 0.88986421 0.62014854
-0.76486516 0.86155033 0.67312896
-0.76076329 0.86330241 0.73068416
-0.78949809 0.88635325 0.79480207
-0.77050984 0.86442935 0.84056598
-0.75370586 0.89511347 -0.17366043
-0.71960998 0.91400915 -0.1064274
-0.73781025 0.90029699 -0.096093476
-0.71229661 0.88582134 -0.026348472
-0.72833478 0.92431211 0.046682984
-0.73423398 0.87718374 0.098807335
-0.74672782 0.88190442 0.13643178
-0.74701488 0.87435585 0.18756118
-0.74120438 0.91701961 0.20937753
-0.71484065 0.90357924 0.26635122
-0.73806608 0.91726589 0.32884383
-0.74387437 0.91545832 0.37316477
-0.76415503 0.90316641 0.44625723
-0.71842724 0.91274822 0.45381367
-0.72391737 0.91992688 0.50673163
-0.74971056 0.89523453 0.5699448
-0.73292017 0.88929403 0.62003541
-0.73244119 0.92508179 0.69976866
-0.74813199 0.90254474 0.73355478
-0.73097634 0.90968853 0.79661518
-0.76193434 0.89676422 0.8327651
-0.6950928 0.93397659 -0.18095762
-0.71483147 0.9208948 -0.11566672
-0.69407576 0.91170245 -0.07961902
-0.67815042 0.92672205 -0.039371461
-0.69326687 0.92081845 0.025170714
-0.71334434 0.93768585 0.098812878
-0.71345675 0.9295916 0.11693019
-0.6746726 0.94059026 0.1784932
-0.69976771 0.93393159 0.21311095
-0.69604182 0.92856836 0.28806099
-0.66997492 0.9214685 0.30304754
-0.69812918 0.91935444 0.39942372
-0.71209377 0.91501349 0.42816189
-0.7137087 0.91604275 0.48865482
-0.67852259 0.92524654 0.5116545
-0.68516791 0.93529505 0.57953274
-0.69864154 0.92918503 0.64304912
-0.68903863 0.93730229 0.65886188
-0.70432574 0.92852098 0.7173593
-0.70529282 0.90441287 0.76225609
-0.67506498 0.93770468 0.81491005
-0.64897949 0.93142253 -0.15696031
-0.64633787 0.92882484 -0.11291856
-0.63998073 0.96822757 -0.072933614
-0.62985152 0.93422914 -0.049688697
-0.66737431 0.93326962 0.0045018792
-0.64135706 0.97421765 0.065917253
-0.65113205 0.95550686 0.11907451
-0.66693223 0.95814508 0.15625073
-0.6598388 0.93842906 0.22515357
-0.62964112 0.9455443 0.29905879
-0.64704806 0.97315913 0.31256682
-0.66502512 0.93344444 0.3668856
-0.66305184 0.92778528 0.41125017
-0.64890659 0.9289248 0.49922246
-0.65983111 0.9476651 0.54992056
-0.64565635 0.96643978 0.59209263
-0.65759182 0.92694008 0.61491925
-0.62772936 0.95077401 0.65525621
-0.65270185 0.96314585 0.72763801
-0.63731396 0.95000237 0.78587353
-0.62398577 0.94441074 0.83540088
-0.61426479 0.98172188 -0.17456064
-0.62071729 0.96922207 -0.12201279
-0.58710253 0.9760682 -0.06611374
-0.60522431 0.99406427 -0.038454592
-0.61737615 0.99565625 0.047794789
-0.58945072 0.96049547 0.050705165
-0.60094225 0.96821946 0.11408302
-0.61244029 0.97113782 0.17707077
-0.60490406 0.989416 0.21041292
-0.59788167 0.98689061 0.25736648
-0.62198615 0.98313433 0.34404236
-0.61048126 0.95220548 0.39663711
-0.63427645 0.98204494 0.44795585
-0.59326422 0.96327209 0.45015037
-0.62685406 0.97420198 0.50777763
-0.57745862 0.96874082 0.58795798
-0.60130227 0.96013361 0.63344479
-0.63044804 0.98097146 0.65169919
-0.59884638 0.98946095 0.73563558
-0.62369514 0.96416038 0.76925886
-0.60838044 0.99780977 0.84790301
-0.54984885 1.0087111 -0.15752238
-0.56142676 0.97613001 -0.11050943
-0.55144995 0.99223351 -0.090921104
-0.58670628 1.0128405 -0.026765019
-0.5677219 1.0049515 0.01061964
-0.54811275 0.98409712 0.056131214
-0.55614972 0.98301953 0.10565911
-0.57391006 0.99569237 0.18678665
-0.55113029 1.0025171 0.20451868
-0.54213512 0.99510878 0.29675573
-0.57985079 0.9852286 0.30895311
-0.59136605 1.0027022 0.37855932
-0.55259562 1.0210911 0.42149103
-0.57872272 1.0076066 0.47464675
-0.56569612 0.98315781 0.50553519
-0.55026793 1.0202246 0.57411528
-0.58064222 0.99290824 0.6454556
-0.58064532 1.001018 0.65479726
-0.56789398 0.97256535 0.72506827
-0.54448402 0.99822992 0.78857392
-0.566769 0.98103976 0.8198384
-0.51603603 1.0565175 -0.16578498
-0.50751525 1.0418745 -0.13210753
-0.50495958 1.0468589 -0.098315418
-0.50045872 1.0325198 -0.047355026
-0.51671565 1.0171813 0.029175222
-0.51882362 1.0022302 0.066574752
-0.51542574 1.0319641 0.10261527
-0.50509846 1.0374954 0.15861115
-0.50451034 1.0182452 0.22439554
-0.5198192 1.032505 0.27524167
-0.5301947 1.012907 0.33228296
-0.50974137 1.0246426 0.37584686
-0.54477072 1.0271469 0.41887558
-0.52165914 1.0109618 0.46820286
-0.53769016 1.0286404 0.53114623
-0.51016223 1.0326145 0.55724555
-0.5234673 1.0212008 0.61088961
-0.54336655 1.0328213 0.69280696
-0.50629914 1.0362419 0.71419698
-0.54430151 1.0182427 0.75064313
-0.51958472 1.0511012 0.84774238
-0.47817221 1.0739861 -0.18150434
-0.48068145 1.0442513 -0.14186785
-0.50058401 1.0539536 -0.082846433
-0.48812065 1.0300366 -0.042058766
-0.47300723 1.0444185 0.016096026
-0.4600369 1.0547882 0.079139069
-0.49342021 1.0459322 0.12164322
-0.45583603 1.05532 0.17875391
-0.46460024 1.0293045 0.2141459
-0.4614875 1.0534626 0.28044042
-0.46345142 1.0570997 0.34081078
-0.47872344 1.0292224 0.36290485
-0.48715535 1.0434773 0.40293631
-0.48824736 1.0416085 0.45243013
-0.48885885 1.0244939 0.54152298
-0.48131844 1.0327177 0.55989552
-0.48990038 1.0490911 0.64700019
-0.47164044 1.0724806 0.69053078
-0.48186472 1.065078 0.73045188
-0.46963343 1.0574454 0.79296887
-0.50188321 1.0522991 0.81910604
-0.44250479 1.0600256 -0.15033284
-0.44001862 1.048326 -0.126863
-0.43407777 1.0901116 -0.089241177
-0.4297218 1.0629456 -0.015507281
-0.43925318 1.0679827 0.0098931193
-0.42135713 1.082957 0.064331859
-0.41018268 1.0787381 0.11973037
-0.44522181 1.0736607 0.19816896
-0.41951481 1.0604798 0.23573215
-0.41211924 1.0822111 0.2557503
-0.40658167 1.0632943 0.34602427
-0.42033759 1.0976332 0.39209053
-0.45110747 1.0831052 0.43984079
-0.4172149 1.0643289 0.46780109
-0.42758885 1.0642657 0.53053439
-0.44509664 1.0806226 0.58963501
-0.44153121 1.0762936 0.6364342
-0.45292291 1.0866978 0.69212753
-0.46071586 1.0767732 0.70691085
-0.44444683 1.0901932 0.77804446
-0.44203356 1.0810043 0.8205657
-0.42394957 1.1075743 -0.17190009
-0.38415185 1.1136001 -0.10095015
-0.36901057 1.0973992 -0.055841118
-0.40238765 1.0797836 -0.030770868
-0.41214296 1.087898 0.0084135234
-0.37777519 1.0845565 0.098831594
-0.41198573 1.0875605 0.1314439
-0.3956728 1.0986187 0.19974953
-0.39251071 1.0854181 0.23463118
-0.37263566 1.0851614 0.29821286
-0.40676579 1.1008682 0.31237775
-0.39967921 1.0953872 0.37655634
-0.36930642 1.0838308 0.40236545
-0.36247578 1.0894104 0.47021919
-0.38294694 1.0932611 0.52413732
-0.37077528 1.1104648 0.57303244
-0.36824414 1.1009669 0.61984384
-0.40028557 1.0749826 0.6791091
-0.39991558 1.0749116 0.73993659
-0.41443011 1.0983285 0.7790283
-0.39405239 1.0860301 0.84846115
-0.35217446 1.1193812 -0.16375875
-0.35205296 1.1432624 -0.13230413
-0.34163386 1.0997238 -0.051912695
-0.37790427 1.1338367 -0.02038002
-0.36280832 1.1222113 0.038412243
-0.34904385 1.1309828 0.071188301
-0.3287572 1.1345215 0.13012686
-0.36408159 1.127301 0.18724945
-0.34594652 1.1467695 0.21925512
-0.33537811 1.1178554 0.2583226
-0.36608633 1.1109612 0.32360616
-0.350382 1.1319157 0.36591342
-0.35914546 1.1231602 0.42589307
-0.33066466 1.1202397 0.45391339
-0.34963354 1.108539 0.53252375
-0.33924243 1.1525685 0.56107146
-0.33260772 1.1354092 0.61049581
-0.33740529 1.1252061 0.65370792
-0.32153016 1.1188999 0.71282643
-0.34076801 1.1560415 0.78824759
-0.33467296 1.1147914 0.8082673
-0.32893416 1.1547559 -0.17375356
-0.29274246 1.1458192 -0.12267736
-0.30703276 1.1342106 -0.079915017
-0.32915112 1.1473272 -0.038331211
-0.29442212 1.1478298 0.042743236
-0.30070609 1.1573888 0.099304914
-0.31597629 1.1264968 0.11928383
-0.29413727 1.1583742 0.19431642
-0.31926519 1.139902 0.24177206
-0.31696507 1.138096 0.29054606
-0.30635527 1.1476024 0.34720275
-0.31768233 1.1350758 0.39378604
-0.32881287 1.1437979 0.43540353
-0.32548144 1.1466836 0.49542201
-0.27781153 1.1385926 0.5425356
-0.32748911 1.1444079 0.59942842
-0.31608334 1.1540915 0.60703778
-0.31237265 1.1519194 0.6752162
-0.31577232 1.1587348 0.72058654
-0.31578633 1.1250505 0.78629637
-0.29800478 1.1654037 0.83038384
-0.25124058 1.1542556 -0.17088526
-0.26626864 1.1628127 -0.1141789
-0.27174258 1.1609396 -0.080040306
-0.26260138 1.1984559 -0.034101933
-0.26083192 1.1475838 0.018050343
-0.25438651 1.168834 0.097359762
-0.2764259 1.160347 0.12563328
-0.28466371 1.1807003 0.17566378
-0.24322 1.1849358 0.2361798
-0.2651681 1.165983 0.26855505
-0.26118514 1.1553926 0.33458561
-0.28445169 1.1835705 0.36604396
-0.23693553 1.1760442 0.40406266
-0.24302205 1.1845238 0.46914345
-0.27359161 1.1599061 0.5126456
-0.28443679 1.1837815 0.59169447
-0.27035612 1.1611032 0.60606772
-0.24803904 1.1851505 0.68736434
-0.25667122 1.1492347 0.71910203
-0.26288763 1.1908869 0.77413845
-0.23696157 1.1675525 0.83401185
-0.22760415 1.1896292 -0.17134085
-0.20690259 1.1958598 -0.13929594
-0.24081263 1.1935705 -0.094342113
-0.21158656 1.2072029 -0.01994881
-0.21038851 1.1954919 0.040609986
-0.22921985 1.2066656 0.058574066
-0.22384521 1.2136487 0.12922981
-0.22120425 1.2056087 0.16773115
-0.21004435 1.2204447 0.21607339
-0.22113267 1.1798986 0.29224169
-0.24438968 1.2030094 0.34370336
-0.19999588 1.2042309 0.36850935
-0.23384649 1.1840799 0.40142155
-0.21280006 1.2279191 0.47319549
-0.20351368 1.2124076 0.53950828
-0.19985935 1.1889023 0.59804589
-0.23172456 1.1947207 0.64260864
-0.20883116 1.1985689 0.67854464
-0.21373618 1.2270919 0.74889445
-0.19703117 1.2008497 0.75849199
-0.21495906 1.183176 0.83453083
-0.19746116 1.2395684 -0.16241103
-0.14544645 1.2244891 -0.13025469
-0.14626163 1.2248318 -0.064518064
-0.17282763 1.2073122 -0.0069656968
-0.17010149 1.2536592 0.045470595
-0.20445222 1.2344466 0.08625111
-0.18078324 1.2433908 0.12814397
-0.16902971 1.2095758 0.17598996
-0.17137042 1.2213954 0.22742361
-0.16909671 1.2088797 0.29190651
-0.17477852 1.2253196 0.32675588
-0.1514746 1.2209898 0.36514038
-0.17085251 1.2314472 0.40131578
-0.17640701 1.2135223 0.47630021
-0.17375517 1.2274579 0.51633871
-0.17188767 1.2324936 0.58810401
-0.1770221 1.2160096 0.60674608
-0.19322556 1.2381659 0.66309232
-0.17554656 1.2413166 0.73293877
-0.17248651 1.2363707 0.78589487
-0.17039397 1.2427919 0.84210891
-0.13380912 1.2495401 -0.18975866
-0.135203 1.2225704 -0.13096678
-0.15960509 1.2522192 -0.064732879
-0.14916015 1.2486945 -0.033501238
-0.13975638 1.2720765 0.012930334
-0.11546289 1.253822 0.061109409
-0.15863806 1.2630979 0.10217778
-0.14141601 1.2245188 0.17127417
-0.13246405 1.2438319 0.20585981
-0.13309485 1.2437614 0.25559613
-0.10850339 1.2588187 0.34749395
-0.12350514 1.2484769 0.3994031
-0.1067678 1.2480191 0.4460634
-0.14498305 1.2597312 0.46331209
-0.14215028 1.2317246 0.54176366
-0.1380485 1.2311511 0.55114299
-0.11912625 1.2541344 0.61274123
-0.13481542 1.2310762 0.69343638
-0.14958516 1.241122 0.71012425
-0.10943186 1.2541602 0.79869652
-0.12904286 1.2562623 0.80419397
-0.10549911 1.2678325 -0.15367338
-0.11154296 1.2668355 -0.13438269
-0.074955218 1.2913929 -0.078776181
-0.10941955 1.2688522 -0.017771244
-0.10045808 1.25428 0.046238631
-0.085644029 1.2845894 0.071505293
-0.092415325 1.243723 0.13501126
-0.086034946 1.2701451 0.18739519
-0.11185729 1.2754381 0.21072395
-0.089829825 1.2594666 0.28782544
-0.090930305 1.2533664 0.33515024
-0.10983538 1.2770932 0.37766317
-0.087241583 1.2790407 0.42767417
-0.10792502 1.2710612 0.47205001
-0.077717029 1.3063607 0.5317139
-0.097862117 1.2751322 0.55393678
-0.075185232 1.2943485 0.62854183
-0.10272878 1.2570206 0.68778598
-0.060653798 1.2739744 0.72199619
-0.070052706 1.2912508 0.75984514
-0.084050648 1.2908113 0.83393896
-0.022763036 1.2961071 -0.15262094
-0.073813491 1.3092161 -0.13627604
-0.053229235 1.3163199 -0.058512241
-0.047539733 1.3114821 -0.026768595
-0.030009858 1.3044828 0.01295495
-0.0373035 1.3152152 0.082696036
-0.059765898 1.3004338 0.12410882
-0.07096421 1.3122208 0.17161885
-0.050965063 1.296702 0.23433074
-0.062124424 1.318341 0.27401862
-0.060072653 1.2820523 0.33489871
-0.032910638 1.3079227 0.36919719
-0.032862119 1.3190744 0.44872808
-0.039250962 1.2892832 0.48645902
-0.046038441 1.3245152 0.54595387
-0.04890167 1.3096308 0.59515345
-0.030098878 1.2921853 0.63465643
-0.037870012 1.3261199 0.65413463
-0.045937799 1.2973135 0.70877779
-0.077458553 1.3095603 0.79041404
-0.057534806 1.2740945 0.80161065
-0.01816573 1.3212082 -0.19091982
0.0053093806 1.339951 -0.12081209
-0.02303388 1.3344773 -0.08509475
0.013133891 1.3489084 -0.010954738
0.0091525093 1.3074676 0.045473248
-0.010636471 1.2941647 0.060533375
-0.0040862188 1.3239578 0.12861274
0.0096965805 1.3351882 0.16763531
0.001836665 1.3524055 0.20630495
-0.012241267 1.3072252 0.25076315
-0.018993489 1.3063151 0.34755537
-0.00086226314 1.3407102 0.37571338
0.0050979331 1.3395057 0.40694326
0.021687962 1.3296551 0.46797463
-0.0083407983 1.3027859 0.52483606
0.0078772381 1.3482012 0.5563978
0.0026711598 1.3318654 0.6344201
0.015816636 1.3430231 0.6768499
0.019355722 1.3126122 0.74299228
-0.0099510178 1.3274177 0.77912009
-0.021676205 1.3288085 0.82866538
0.033092804 1.3255153 -0.15562198
0.062260844 1.3559713 -0.14613286
0.063424625 1.3531291 -0.070435464
0.056939758 1.3326442 -0.026238233
0.01739753 1.3535053 0.048652321
0.052153535 1.3359504 0.06136553
0.026705094 1.353346 0.12105042
0.024498828 1.3456352 0.18290582
0.043310113 1.3585737 0.20847298
0.040743597 1.3255657 0.2591114
0.036988087 1.327925 0.33177444
0.016246982 1.3600253 0.36013737
0.012729444 1.3594495 0.40674099
0.03141994 1.320375 0.49787575
0.058670409 1.3323222 0.50847602
0.054131009 1.3765585 0.56487978
0.045742966 1.3536904 0.63633978
0.052101381 1.3691968 0.69482028
0.050419547 1.3369879 0.71576524
0.040476657 1.3691695 0.79706156
0.008822985 1.3583921 0.83004618
1.0269078 -0.39465779 -0.19105503
1.0544503 -0.36054623 -0.13075903
1.0176109 -0.3844018 -0.096435755
1.0596645 -0.37239832 -0.0028158426
1.0516137 -0.36325377 0.049852073
1.0467223 -0.40785658 0.074038208
1.055962 -0.40151405 0.14306742
1.0213509 -0.37026918 0.16502541
1.0488069 -0.3588466 0.24394366
1.0480027 -0.36429 0.28061894
1.0212395 -0.38388473 0.32545114
1.0640403 -0.38836414 0.38864309
1.0521607 -0.36607957 0.44640058
1.0612864 -0.3899163 0.49854112
1.0651478 -0.38331115 0.51939315
1.0447797 -0.38714409 0.58768332
1.0269217 -0.37833023 0.64339417
1.0404921 -0.36889654 0.65566313
1.0456339 -0.39309871 0.73548198
1.018002 -0.37017077 0.76352173
1.0310134 -0.39515066 0.81222981
1.0141135 -0.33219773 -0.15573192
1.020251 -0.31306022 -0.10733145
1.0252188 -0.33980483 -0.097679436
0.99780917 -0.34350169 -0.045985937
1.0400788 -0.33339918 0.049232274
1.0289229 -0.32605106 0.060730502
0.99616945 -0.33389115 0.10155691
1.034439 -0.35302693 0.15130733
1.0253531 -0.31734592 0.2404739
1.0261283 -0.311845 0.27461568
1.0263122 -0.31400722 0.32377887
1.0084201 -0.36029458 0.38798919
0.996737 -0.32578683 0.44486472
1.0259537 -0.32052785 0.46297008
1.022181 -0.35224527 0.53149426
1.0231692 -0.3467443 0.56986785
1.008047 -0.34504294 0.62384588
1.0421709 -0.33249754 0.68022394
0.99426687 -0.32610601 0.73388016
1.0084701 -0.32447213 0.77189732
0.99900424 -0.33331591 0.82262862
1.0116432 -0.30460566 -0.17785481
1.0104088 -0.3105458 -0.11841106
0.97702605 -0.3102715 -0.060100675
0.97595 -0.29565048 -0.019214988
0.97148287 -0.30621904 0.02785334
0.97471601 -0.29265523 0.06542486
0.97569561 -0.30570853 0.11083238
0.98964894 -0.27876717 0.18510559
0.96704412 -0.28789818 0.24409497
0.96197683 -0.28824645 0.26403505
0.96698439 -0.30038542 0.31885797
0.98044592 -0.32121623 0.3813208
0.99993801 -0.30471599 0.40508312
0.98371816 -0.32674855 0.48185015
1.0212802 -0.3023811 0.54857957
0.97664297 -0.31226236 0.59111631
0.99443531 -0.2847867 0.60339737
0.9999308 -0.30765146 0.68914253
0.9763701 -0.31395721 0.72346795
1.0068235 -0.30700988 0.75480127
1.0081372 -0.27380896 0.82135314
0.93545568 -0.24398647 -0.19723237
0.98062843 -0.25286841 -0.12095541
0.98120391 -0.24154036 -0.056597412
0.96432561 -0.22651173 -0.04974854
0.95105284 -0.24496131 0.047977567
0.99527562 -0.25797689 0.050414801
0.94984639 -0.24322645 0.12985446
0.97074908 -0.23144804 0.19985685
0.97824478 -0.26129705 0.20519373
0.97994184 -0.23214974 0.28209996
0.9625119 -0.27744329 0.33357859
0.95520484 -0.25444204 0.38819221
0.964872 -0.2356552 0.4481138
0.95064408 -0.26293337 0.47348797
0.98120534 -0.26008379 0.51433986
0.97737217 -0.22738229 0.56601614
0.97538018 -0.22658415 0.63375115
0.96023834 -0.26399183 0.69390321
0.96244597 -0.27269244 0.73933971
0.96686941 -0.22554247 0.75158453
0.97932196 -0.23673324 0.81345552
0.93305844 -0.18621241 -0.18117952
0.97047287 -0.20892115 -0.12107494
0.96177101 -0.21341546 -0.09272781
0.94047487 -0.21027134 -0.032010674
0.90957248 -0.200936 0.0093306005
0.9636538 -0.1971149 0.074410006
0.95518231 -0.19739653 0.10705286
0.95125306 -0.19001471 0.1726705
0.95395523 -0.20998712 0.20172465
0.9234007 -0.22014566 0.26189125
0.95377028 -0.18163441 0.30562258
0.94244468 -0.19446529 0.35957694
0.95828283 -0.2227353 0.42970917
0.94632214 -0.20634814 0.48945552
0.93839234 -0.19535284 0.52132523
0.95694494 -0.2246014 0.58683592
0.93523932 -0.21761824 0.62806678
0.94742262 -0.19793521 0.65922511
0.97134936 -0.21614362 0.74888849
0.96770704 -0.21738578 0.78767836
0.94221711 -0.1925893 0.83013868
0.89915109 -0.17727943 -0.19563362
0.90155303 -0.15270491 -0.12622109
0.93115193 -0.14741816 -0.063401729
0.94890106 -0.17437525 -0.045545757
0.91910839 -0.14705528 0.024490118
0.92348075 -0.1672328 0.095609844
0.94206059 -0.17402281 0.1207642
0.90537226 -0.16561614 0.15257941
0.92650974 -0.15973394 0.20103078
0.92453104 -0.15129207 0.26414928
0.91332018 -0.18344356 0.30860204
0.91877949 -0.18503873 0.37266257
0.91551316 -0.15261574 0.43993983
0.92724019 -0.18183343 0.46912575
0.91821182 -0.14135246 0.50536835
0.94978184 -0.17533948 0.58141339
0.93225873 -0.17789777 0.6334976
0.91214514 -0.14484648 0.66915101
0.88954997 -0.15295185 0.7403245
0.9082129 -0.17118312 0.78530955
0.90383649 -0.17103006 0.82876909
0.87577021 -0.12435226 -0.16552824
0.91853547 -0.13279568 -0.10542339
0.86662757 -0.10939442 -0.097717077
0.88000089 -0.10685878 -0.0205158
0.90815246 -0.11578156 0.005907774
0.89681965 -0.12455098 0.06003882
0.88348901 -0.14501993 0.12860464
0.88281763 -0.10151742 0.19277695
0.87809324 -0.12205835 0.24949329
0.90595281 -0.12277712 0.27525532
0.88551342 -0.13969691 0.33329138
0.88734049 -0.097523078 0.35484508
0.90315378 -0.12883313 0.4031769
0.89883125 -0.12552039 0.49689943
0.88114148 -0.13635154 0.5115639
0.88948286 -0.14946796 0.55713427
0.92108649 -0.13198785 0.63966459
0.89975536 -0.12501542 0.65960515
0.91585803 -0.12990202 0.73769176
0.88796353 -0.11745615 0.75207603
0.89123082 -0.13104261 0.8179639
0.8863759 -0.091411129 -0.17859146
0.86934876 -0.098383352 -0.12256646
0.87058032 -0.079070941 -0.056824714
0.88359332 -0.092678204 -0.02432394
0.86344117 -0.062761441 0.011681318
0.8595376 -0.10583939 0.073185682
0.86719692 -0.073560908 0.11947063
0.86479467 -0.10594602 0.18056652
0.87142158 -0.10217609 0.2363539
0.8586967 -0.056528404 0.29211724
0.8486501 -0.089470342 0.34010226
0.85309619 -0.060498312 0.35745287
0.85971081 -0.11030339 0.43241608
0.87103999 -0.059813395 0.48980534
0.86084449 -0.094333217 0.54621994
0.84548098 -0.079690263 0.56875461
0.85907185 -0.064448819 0.61074656
0.88662338 -0.078293934 0.68326193
0.85766578 -0.057683095 0.70627141
0.88063419 -0.057786271 0.75563502
0.87705684 -0.064492479 0.82629871
0.84309196 -0.038992539 -0.19667396
0.81656134 -0.027280629 -0.14226595
0.8495667 -0.048564509 -0.061434805
0.86701137 -0.04650107 -0.035484999
0.82847595 -0.035511658 0.032553464
0.84862304 -0.052889004 0.065624222
0.86014485 -0.052754894 0.11924717
0.8405385 -0.021062627 0.18809584
0.85042059 -0.034475073 0.21907446
0.85145247 -0.041647464 0.27666008
0.83916497 -0.046257317 0.34594634
0.86302155 -0.025947094 0.35216805
0.83655727 -0.031504974 0.42270932
0.84396172 -0.008717984 0.47961533
0.8181752 -0.022004098 0.54412013
0.8520363 -0.057484463 0.55472863
0.84435415 -0.055082694 0.63830137
0.83945727 -0.046102703 0.69839621
0.84387147 -0.026542515 0.72265112
0.83760381 -0.066377863 0.77176428
0.85431683 -0.046606839 0.83007842
0.83306015 0.025641307 -0.16042072
0.80675524 0.010136127 -0.12533504
0.8037771 0.011757568 -0.074923724
0.84454679 -0.00081259012 -0.047247082
0.80640483 -0.021563366 0.026194811
0.83215749 -0.0031556934 0.088203549
0.78559464 0.017782778 0.12492736
0.79429257 0.0099825263 0.16822387
0.80684924 0.01205644 0.21614596
0.82382739 -0.016129926 0.29317293
0.84172058 0.010004565 0.30730835
0.78926623 0.019503444 0.38363254
0.8369171 0.0020702481 0.4429777
0.82972002 0.022939444 0.48755789
0.80254817 -0.0052560568 0.53957462
0.80687058 -0.024312645 0.55747318
0.82614273 -3.6761165e-05 0.64008695
0.82340097 0.034275323 0.68006253
0.82134116 -7.4997544e-05 0.71994239
0.80683142 0.0041613877 0.77176583
0.8033821 0.023191094 0.82545406
0.80231774 0.07606066 -0.17473537
0.80675399 0.066927776 -0.12128237
0.8118962 0.038886011 -0.098804355
0.79488111 0.057033271 -0.04143101
0.7840184 0.019898862 0.021126568
0.81211269 0.060792863 0.0929185
0.7597028 0.059624165 0.10325371
0.76560277 0.060280293 0.15761171
0.79049146 0.057448044 0.21833983
0.80453897 0.050427899 0.26661196
0.77691096 0.042693228 0.30748045
0.78280509 0.037120998 0.38585928
0.79641885 0.027363822 0.43920141
0.78015053 0.043436736 0.45564777
0.79646826 0.040161401 0.50656265
0.77252364 0.06210728 0.56706023
0.81038636 0.037030518 0.64175797
0.77234894 0.048732921 0.65391964
0.82246792 0.047040626 0.74898952
0.79939073 0.040885746 0.75687373
0.78993762 0.067450181 0.83641213
0.76586163 0.093582027 -0.15638891
0.77132267 0.1222179 -0.14045408
0.77759778 0.07876344 -0.096686244
0.75785971 0.060832739 -0.042352349
0.78634155 0.10748401 0.013512313
0.77207714 0.08699169 0.069260806
0.75834441 0.078412384 0.11713371
0.7561869 0.063806623 0.19076213
0.77579105 0.10741203 0.24841759
0.77615792 0.07369408 0.26220429
0.76051766 0.10811826 0.34757948
0.7831443 0.099156469 0.39260954
0.78032857 0.10014943 0.40091485
0.78125441 0.11710264 0.49206221
0.77293175 0.073437035 0.53976893
0.7463342 0.10427626 0.59087861
0.75491834 0.08193256 0.6029228
0.75838923 0.10626768 0.69757682
0.74690497 0.10959011 0.73291337
0.78886473 0.083379887 0.7787267
0.7408666 0.10327023 0.84671354
0.74733037 0.12833425 -0.19169939
0.72796297 0.11949585 -0.12015539
0.72970396 0.13896438 -0.072085053
0.73475111 0.10848929 -0.040088952
0.71598071 0.13998801 0.0083392262
0.73979044 0.16220336 0.05151473
0.75262845 0.15072322 0.1355228
0.75017452 0.16951537 0.19452202
0.77025086 0.1389342 0.24937275
0.75803578 0.12670219 0.27524951
0.7627697 0.14789709 0.32652298
0.74784386 0.11643001 0.35197538
0.73985302 0.12292407 0.44475856
0.72353166 0.14631133 0.45935148
0.71684033 0.13183609 0.5320105
0.75603884 0.16325575 0.56987131
0.74303353 0.11074641 0.60320616
0.73777491 0.1215322 0.6775341
0.72475952 0.12815684 0.72418594
0.74434638 0.13431767 0.79357743
0.74030292 0.12909171 0.8443383
0.69778562 0.16526739 -0.19325992
0.71837562 0.15732688 -0.14759094
0.73204589 0.17342022 -0.08833316
0.71329808 0.16165417 -0.048537046
0.71881098 0.19367345 0.040584505
0.68800408 0.18231063 0.080546036
0.72791827 0.18194464 0.12686338
0.71662736 0.15686482 0.182623
0.73405659 0.18041879 0.20657358
0.71233279 0.14977583 0.27677825
0.71852887 0.1624814 0.31800383
0.73483711 0.18877378 0.38332286
0.72868127 0.20776851 0.4096902
0.73586911 0.17490858 0.49035072
0.70492733 0.18165329 0.54597282
0.73450959 0.17204002 0.5844332
0.72496641 0.17520925 0.63641429
0.73037088 0.16133045 0.69365972
0.71070749 0.15159577 0.70590174
0.72520357 0.1671558 0.77163815
0.70341784 0.19644703 0.82485944
0.69400257 0.23417568 -0.15084818
0.68002528 0.22225411 -0.10022277
0.70777667 0.23136356 -0.076559305
0.69036132 0.22591354 -0.032681286
0.68606275 0.20281996 0.031723082
0.67814517 0.24297857 0.099380329
0.69512099 0.2226216 0.12398072
0.67436737 0.23102331 0.17272003
0.66951746 0.22283827 0.24403998
0.70310676 0.20201732 0.25679737
0.69113982 0.22726871 0.33392319
0.69178236 0.22791898 0.38903707
0.69102824 0.22415499 0.41602564
0.6998589 0.23465076 0.48798811
0.7125982 0.23026405 0.53412592
0.68875855 0.24816945 0.57573295
0.67207539 0.21904528 0.62555146
0.68644375 0.19853155 0.68038738
0.69811523 0.21856031 0.73443931
0.69831795 0.20754001 0.76216757
0.69545537 0.24639727 0.81995261
0.67293251 0.29397094 -0.19464701
0.66744292 0.2478645 -0.14694744
0.6585688 0.24648587 -0.08151868
0.64629805 0.26206729 -0.0024802387
0.68285686 0.2487826 0.045302153
0.64859998 0.26126382 0.050620511
0.68519682 0.26167229 0.14334819
0.63465554 0.27509224 0.18212247
0.6789248 0.27541575 0.2150259
0.64994723 0.27201772 0.25968736
0.68986273 0.25712866 0.3270537
0.66825724 0.25259382 0.35038966
0.67586583 0.27859813 0.43638748
0.65903389 0.27961046 0.46540588
0.64595509 0.26951268 0.51913977
0.69351453 0.25593761 0.56312162
0.64896429 0.2579591 0.61208868
0.66899204 0.25915426 0.66706055
0.66848731 0.28798902 0.72778475
0.69232666 0.27230942 0.78132325
0.65377164 0.24151102 0.82707298
0.62564087 0.30186501 -0.17100155
0.64727128 0.30399513 -0.14486265
0.62912446 0.31034815 -0.07248804
0.64451838 0.29385987 -0.016503066
0.6579088 0.30152279 0.002784431
0.65978843 0.29422018 0.096157283
0.64469349 0.28521508 0.10386951
0.62273419 0.32285517 0.18489268
0.65149891 0.32943654 0.21978493
0.67048341 0.30819827 0.27267271
0.63895619 0.30954579 0.32081091
0.64444649 0.3254714 0.39859864
0.63371992 0.31621736 0.44759041
0.62662649 0.32576132 0.4738611
0.65049148 0.34166223 0.51730007
0.63976842 0.29745257 0.56340432
0.65130317 0.33378512 0.61050153
0.64463854 0.29106325 0.69444233
0.63593429 0.32378617 0.74527317
0.62543929 0.29566249 0.78365684
0.64092976 0.28465843 0.80393696
0.60829657 0.37413031 -0.16329446
0.62937993 0.34337422 -0.13112539
0.62718678 0.36955619 -0.084318459
0.63138026 0.3588416 -0.033325374
0.63304365 0.37453848 0.0024971366
0.61383975 0.33038512 0.097935691
0.6180619 0.36699575 0.10076801
0.60066104 0.34952027 0.17213887
0.60027337 0.35217375 0.22921035
0.62613916 0.38169697 0.27646655
0.59549552 0.3490389 0.34162068
0.61279416 0.37989637 0.39615989
0.60650879 0.32805178 0.41669771
0.62221289 0.33607277 0.4656238
0.61747777 0.36562312 0.53269935
0.62846303 0.37374401 0.57453358
0.60044843 0.36225319 0.63014591
0.60368371 0.36023825 0.67749393
0.62138814 0.35026497 0.70555019
0.62785858 0.37540513 0.78380603
0.59283286 0.35915962 0.81435466
0.58725756 0.36705399 -0.18603861
0.58285946 0.40762848 -0.14547274
0.58128202 0.38800067 -0.098296881
0.59176034 0.39365226 -0.0065469742
0.60716265 0.41525483 0.013104439
0.57405496 0.39111996 0.076352835
0.57901281 0.40628076 0.10134193
0.60522765 0.40511498 0.15162133
0.59588557 0.42380258 0.21294913
0.58508325 0.36724207 0.26700598
0.57572162 0.40067309 0.33303663
0.5864116 0.38437828 0.36614504
0.58724481 0.42201695 0.40065023
0.56565756 0.39483514 0.46365303
0.59137893 0.38801855 0.50167525
0.60871369 0.40167725 0.59283233
0.60001719 0.40557569 0.64606678
0.57208192 0.41389877 0.66879249
0.62014276 0.39742842 0.74481535
0.57839388 0.41071218 0.79582757
0.59500301 0.42272574 0.82774895
0.57069445 0.43820414 -0.1518923
0.56320608 0.41041571 -0.11726895
0.57271707 0.46506935 -0.071578503
0.56889141 0.41531613 -0.0079917908
0.59192139 0.43036097 0.0064958334
0.5569343 0.44644582 0.063408479
0.55973107 0.41651976 0.10897854
0.56068164 0.46517605 0.16581875
0.5354225 0.44903064 0.23722173
0.55838692 0.45591795 0.28693044
0.60083646 0.43215948 0.34489205
0.56921941 0.44782352 0.37882257
0.56677318 0.45837063 0.44884825
0.58313394 0.42868429 0.49391145
0.57269996 0.46727693 0.54307801
0.560866 0.41697997 0.55962902
0.56894815 0.45867932 0.62319928
0.55646771 0.41544524 0.66949141
0.55413884 0.42178071 0.72182751
0.58970684 0.42522088 0.75521052
0.55014431 0.44791529 0.81040055
0.55850589 0.48411745 -0.17338011
0.56029201 0.48037702 -0.1148636
0.53129894 0.46006376 -0.068709821
0.54471958 0.45818394 -0.0077793002
0.52609706 0.4681825 0.0064806044
0.55565101 0.48908645 0.099362373
0.55151939 0.48517901 0.14280555
0.5632301 0.49622381 0.16877237
0.52779174 0.46392143 0.21569163
0.53061205 0.48565859 0.27727175
0.55117691 0.49717736 0.31445754
0.53113973 0.47766304 0.36191478
0.55162752 0.49960172 0.42975643
0.53223705 0.48052269 0.46261448
0.54258412 0.46650916 0.52058452
0.54811841 0.50456327 0.58214307
0.53318185 0.48402786 0.62313032
0.52637315 0.46740294 0.69983494
0.54796809 0.49205357 0.72838897
0.54545832 0.49481583 0.77253234
0.54209268 0.48338437 0.81992292
0.5390631 0.53879577 -0.16562065
0.49925891 0.51512206 -0.12944856
0.51379585 0.55259073 -0.055658489
0.51762086 0.55473155 -0.013549089
0.51876616 0.54371464 0.0061241984
0.52720159 0.53572327 0.092163518
0.49064854 0.52774113 0.13020861
0.54197192 0.53234822 0.15556797
0.51417232 0.51972502 0.20811614
0.51447248 0.53131866 0.26290473
0.51900584 0.50178242 0.31183979
0.5406242 0.53425461 0.38632131
0.52442753 0.51132113 0.41791412
0.50256717 0.51752263 0.48524123
0.50808978 0.51534247 0.54797918
0.50059277 0.51379418 0.57054204
0.52230322 0.50980747 0.61476529
0.53182936 0.53194165 0.69651246
0.54827583 0.51681972 0.72989857
0.51250142 0.55053073 0.78392661
0.51452023 0.51170135 0.82969314
0.5090611 0.57580352 -0.18530205
0.51701021 0.55778182 -0.1132915
0.47679967 0.55669457 -0.060105741
0.47330078 0.57206821 -0.040769964
0.50125784 0.58334172 0.031196147
0.49390975 0.59054935 0.085358292
0.4645462 0.57208967 0.12027375
0.50024313 0.56096518 0.15433702
0.49164659 0.56973791 0.24404196
0.49423185 0.55928528 0.27508655
0.5002659 0.5666334 0.30131131
0.51132703 0.56191021 0.36876029
0.50857079 0.57572567 0.40974468
0.50360125 0.59639716 0.48966268
0.4858304 0.56552964 0.53355587
0.50340825 0.55140126 0.56841624
0.5013088 0.57834369 0.62497413
0.47659752 0.5873602 0.67142367
0.48651209 0.55951864 0.71882808
0.5219847 0.56567067 0.75943029
