# .PCD v0.7 - Point Cloud Data file format
VERSION 0.7
FIELDS x y z
SIZE 4 4 4
TYPE F F F
COUNT 1 1 1
WIDTH 1321
HEIGHT 1
VIEWPOINT 0 0 0 1 0 0 0
POINTS 1321
DATA ascii
0.013201951 -0.18020307 -0.058246262
0.012725197 -0.19003302 -0.029200012
0.008984088 -0.19056672 -0.018597323
0.0054549212 -0.18921819 -0.017843148
-0.0055725686 -0.18413919 -0.018033369
0.0069435271 -0.18975918 -0.019268699
-0.0014973937 -0.18651251 -0.016562471
0.0070240693 -0.18851115 -0.025508387
-0.0056349398 -0.18359894 -0.021579636
0.011239997 -0.19271456 0.0064683389
0.0025657932 -0.18917172 -0.00019980401
0.012866779 -0.19335857 -0.0014016732
0.0045847991 -0.18903209 0.016298115
0.017542053 -0.1943779 0.015306307
-0.0078383153 -0.18430005 0.0096173799
-0.0032057608 -0.18640766 0.004988967
0.00050261914 -0.18809538 -0.0034324634
-0.0017491241 -0.18708879 0.008299415
0.013005803 -0.19088611 0.025432959
0.02092717 -0.1921211 0.033649966
0.012041117 -0.1859342 0.042861648
-0.022427762 -0.16410384 0.057808287
-0.018073972 -0.16315988 0.064845227
-0.0086095016 -0.15743059 0.080509916
-0.010332335 -0.15492935 0.083069637
0.011313616 -0.15503189 0.094262138
-0.017593447 -0.14464703 0.09150508
-0.015564971 -0.15603119 0.077689521
0.0058757104 -0.13600507 0.1106847
-0.0046162507 -0.12673193 0.1148675
-0.003605732 -0.12538221 0.11634488
0.045769252 -0.12574071 0.12529525
0.030633505 -0.11655233 0.12935212
0.02365314 -0.10985263 0.1323515
0.012916229 -0.1124208 0.12989648
0.01716885 -0.12832148 0.11952463
0.035934128 -0.1219729 0.12659681
0.041914947 -0.10870879 0.13408318
0.032723896 -0.10027049 0.13758522
0.025333919 -0.10100051 0.13722076
0.033436157 -0.10183089 0.13703381
0.062504008 -0.10332007 0.13541065
0.065573752 -0.095335931 0.13812806
0.055518012 -0.073883325 0.14569847
0.079574324 -0.074147597 0.14122802
0.083966032 -0.059450977 0.14258426
0.090769581 -0.058655757 0.14046201
0.093562715 -0.063143477 0.13900511
0.11190034 -0.047204483 0.13243197
0.083396643 -0.037926521 0.15087859
0.12563966 -0.036404841 0.12422074
0.11946733 -0.027686775 0.12713157
0.1197585 -0.022574544 0.12619105
0.11610864 -0.01833538 0.12775719
0.10880259 -0.032205395 0.13447794
0.13269745 -0.025844462 0.1180291
0.12945375 -0.014113 0.11800963
0.15040962 0.0046703098 0.091867879
0.1563772 0.00060385145 0.086608946
0.15503044 0.0040096487 0.086559251
0.1655156 -0.0013940365 0.075062431
0.17226864 0.0092389509 0.053622026
0.16937351 0.015114636 0.053784411
0.16447333 0.021558538 0.057911411
0.16781029 0.024544924 0.045869928
0.17532513 0.017131185 0.034390267
0.1608738 0.037317779 -0.045894954
0.16780829 0.030915717 -0.035697687
0.16915411 0.0025293301 -0.066187717
0.16621479 0.023200201 -0.051737513
0.15730734 0.032656349 -0.060423762
0.15884112 0.03756357 -0.051128745
0.162984 -0.0078129368 -0.08272367
0.1558713 -0.0013898254 -0.088212989
0.15632306 0.013357322 -0.080016658
0.15406621 0.012222625 -0.08282537
0.14439107 -0.01190232 -0.10503676
0.13581695 -0.039558541 -0.11811024
0.10912272 -0.016994957 -0.13177922
0.11251759 -0.042743739 -0.1322123
0.082058497 -0.047212344 -0.14454263
0.073280565 -0.057084609 -0.1456489
0.089519911 -0.080299698 -0.13752609
0.055520739 -0.087619156 -0.14212854
0.0516693 -0.071796164 -0.14675725
0.057256993 -0.070532411 -0.14635471
0.06661281 -0.07086385 -0.14464858
0.056058861 -0.069432229 -0.14705604
0.061064035 -0.11139424 -0.13228577
0.05742028 -0.10998561 -0.13302295
0.066230536 -0.10987271 -0.13284434
0.046461288 -0.099440098 -0.13832705
0.053020764 -0.088785216 -0.14155956
0.049121514 -0.079200357 -0.14510357
0.039332751 -0.08613871 -0.14334495
0.031798542 -0.12135575 -0.12679109
0.040065978 -0.12152552 -0.12705718
0.03718619 -0.12849268 -0.12317685
0.034778479 -0.11964999 -0.12785104
0.014688262 -0.12552398 -0.12153516
0.021272801 -0.11214326 -0.13085307
0.027271407 -0.096079193 -0.13944054
0.029690715 -0.13110739 -0.11996507
0.030796511 -0.14440747 -0.11025597
0.014464865 -0.13153906 -0.116657
0.011491689 -0.14090055 -0.10798196
0.0018432058 -0.14232227 -0.10403665
0.023536421 -0.13915676 -0.11290675
0.00056009705 -0.13849573 -0.1066918
0.0034829462 -0.1293449 -0.11528191
0.008765622 -0.14670376 -0.10160723
0.0092234006 -0.16466723 -0.081425875
0.012778278 -0.15517949 -0.094737396
-0.0083268201 -0.14607354 -0.094872892
0.0027772586 -0.13766186 -0.10833363
-0.027288938 -0.15204002 -0.074974902
-0.024794085 -0.1510123 -0.079007275
-0.020618271 -0.16658616 -0.054072864
-0.01063093 -0.16998129 -0.057329521
-0.030313089 -0.16680153 -0.03951928
-0.033929411 -0.16364744 -0.043106243
-0.020226957 -0.17787303 -0.0095233507
-0.039302833 -0.16764313 -0.0087234871
-0.038314242 -0.16582477 -0.025926689
-0.023024432 -0.17671692 0.0047904719
-0.017080944 -0.17973763 0.0040612402
-0.029129433 -0.1720843 0.021462325
-0.032062691 -0.17086866 0.016110538
-0.044392902 -0.1649365 -0.0063665146
-0.0093896696 -0.18146262 0.023834139
-0.036166091 -0.16691089 0.026412047
-0.034720588 -0.16584891 0.034966927
-0.040602565 -0.1518614 0.062259838
-0.043051481 -0.14564314 0.070792668
-0.035945151 -0.14591026 0.077194549
-0.042600956 -0.14690292 0.069351003
-0.061563168 -0.14044657 0.059239976
-0.028108843 -0.13204589 0.099747077
-0.046053637 -0.13795748 0.080130875
-0.013185496 -0.13718079 0.10203908
-0.020456983 -0.12989403 0.10561579
-0.0085823126 -0.1285598 0.11242495
-0.02720448 -0.11534017 0.11554169
-0.036191396 -0.1206741 0.10659508
-0.020888841 -0.12291569 0.11216936
-0.0061272043 -0.11593331 0.12248059
-0.00041425755 -0.11915722 0.1217949
0.004844869 -0.10730486 0.13065824
0.0043166573 -0.096861824 0.13663502
0.027405392 -0.081814393 0.14499982
0.012279089 -0.075548202 0.14664188
0.016332664 -0.070788883 0.14865306
0.031705882 -0.081645444 0.14506817
0.042397972 -0.031585533 0.15537255
0.092872307 -0.014915631 0.14309797
0.093380541 0.00054367766 0.13749331
0.085394226 0.0068223244 0.14066455
0.078605674 0.0053808033 0.14180627
0.13111146 0.0059127635 0.11085193
0.12427698 0.013766722 0.11352941
0.11917061 0.015803933 0.11691441
0.11730359 0.020713128 0.11657467
0.10324443 0.026279312 0.12513496
0.12242606 0.029951433 0.10809202
0.11376054 0.040733192 0.11067926
0.11703547 0.043014385 0.10654633
0.14145686 0.031301241 0.086688109
0.14103414 0.045328859 0.076198436
0.1286875 0.05682499 0.084774144
0.12873422 0.04902437 0.089998119
0.14459686 0.063044228 0.047326162
0.1425896 0.066943102 0.045907721
0.16174661 0.045391899 0.025788018
0.15625446 0.050895624 0.035297044
0.15852286 0.048310056 -0.032313894
0.15578656 0.05069216 -0.038140267
0.1456778 0.066651769 -0.03781794
0.14996175 0.065653883 -0.021943176
0.15593563 0.043977056 -0.049146846
0.1496762 0.042781726 -0.064267136
0.15311876 0.039072201 -0.061947551
0.14161411 0.055081699 -0.065384038
0.15025878 0.047838971 -0.056764752
0.14118148 0.028984247 -0.088844977
0.13125685 0.030830296 -0.099045485
0.1207808 0.042039838 -0.10352081
0.1374868 0.024559775 -0.096475467
0.1296446 0.025247762 -0.10364579
0.13017224 0.011103772 -0.10971266
0.11351493 0.02741025 -0.11687942
0.1046465 0.030264497 -0.12263329
0.12112822 0.047897134 -0.10032372
0.10226029 -0.0096044354 -0.134454
0.10922234 -0.0093073128 -0.13037507
0.11066065 0.0055937627 -0.12638049
0.10475408 -0.020402499 -0.13456613
0.092018254 -0.0092743533 -0.13948958
0.098517522 -0.0019741836 -0.1355945
0.075347193 -0.0041269916 -0.1462214
0.068644188 -0.0069635301 -0.14887398
0.080206536 -0.0048500933 -0.14445774
0.093793005 -0.010817867 -0.13895506
0.08644741 0.012300462 -0.1391919
0.081624463 -0.034865402 -0.14497447
0.058435496 -0.043540243 -0.15085195
0.054435629 -0.02867136 -0.15296352
0.061867602 -0.02096374 -0.15132083
0.075876661 -0.020205254 -0.14721003
0.059773162 -0.051088948 -0.1496066
0.055726536 -0.047244355 -0.15096159
0.039514653 -0.070246704 -0.14842002
0.041414537 -0.051132936 -0.15264748
0.03676961 -0.049641717 -0.15335816
0.045213889 -0.056387611 -0.15128161
0.049081493 -0.038498819 -0.15334044
0.03008347 -0.07013461 -0.14878358
0.023056194 -0.082421273 -0.14459202
0.0071471669 -0.078208968 -0.14537604
0.017878424 -0.084342994 -0.14405958
0.0015708662 -0.097626291 -0.13562003
0.00064954173 -0.091683075 -0.13865063
-0.0009391809 -0.079445459 -0.14388774
0.014501885 -0.090863571 -0.14075419
0.0022966871 -0.11816514 -0.12320404
-0.00065909076 -0.12710409 -0.11637034
0.00080729288 -0.12584911 -0.11761574
-0.0027713221 -0.11226425 -0.12588573
-0.029753964 -0.11358399 -0.1159319
-0.024302566 -0.10790858 -0.12240596
-0.019042816 -0.10338052 -0.1271749
-0.016805116 -0.10058172 -0.12964052
-0.0075292867 -0.11027949 -0.12605411
-0.021347066 -0.095405124 -0.13167241
-0.01021703 -0.098403141 -0.13299024
-0.021279719 -0.1473663 -0.086428404
-0.030663377 -0.13801074 -0.091492884
-0.037788343 -0.12559761 -0.10088617
-0.03459144 -0.12339868 -0.10490519
-0.025796788 -0.12340681 -0.10924549
-0.032437325 -0.14328648 -0.083330326
-0.020853035 -0.14554447 -0.08886537
-0.043232478 -0.1490965 -0.06515336
-0.042980917 -0.14098687 -0.078631029
-0.045508604 -0.13070105 -0.090158276
-0.036342539 -0.15532325 -0.060094561
-0.060933303 -0.14818251 -0.041015286
-0.063057341 -0.14834285 -0.036764469
-0.058702566 -0.14065576 -0.062562384
-0.062770516 -0.13944262 -0.059760332
-0.050140515 -0.14691359 -0.060728416
-0.050253838 -0.15807253 -0.029083485
-0.054168116 -0.1545033 -0.03444453
-0.038774088 -0.16326509 -0.036505502
-0.052986708 -0.15889689 -0.014059113
-0.058326278 -0.15588865 -0.011647217
-0.062348798 -0.15301889 -0.013639637
-0.069329225 -0.14734289 -0.023134628
-0.054175537 -0.15386979 -0.037180852
-0.043867297 -0.16518043 -0.0013586134
-0.055550523 -0.15683977 0.018593488
-0.072470419 -0.14600521 0.017334819
-0.047783632 -0.15776443 0.037108839
-0.044176456 -0.16063593 0.033933423
-0.044435646 -0.1572776 0.044080894
-0.044503488 -0.15591033 0.047951423
-0.064308994 -0.14159112 0.053645764
-0.07879369 -0.13056985 0.055774167
-0.082538553 -0.12022745 0.070385553
-0.086781383 -0.12519267 0.055055141
-0.062944241 -0.12436334 0.084224232
-0.072902121 -0.098386236 0.10611463
-0.066659562 -0.11178444 0.097103089
-0.039115887 -0.10696688 0.11749238
-0.030694185 -0.098217726 0.1272299
-0.055566546 -0.082315445 0.12799965
-0.064884506 -0.091187336 0.11710504
-0.019657087 -0.097437017 0.13093752
-0.031258062 -0.096320242 0.12789194
-0.015785366 -0.090312451 0.13594514
-0.015593782 -0.090423107 0.13594559
-0.022538146 -0.07599549 0.14183068
-0.014538124 -0.059243724 0.15020263
-0.017720077 -0.053425979 0.15221035
0.0081335232 -0.047067463 0.15540732
-0.0018445946 -0.040494967 0.15670751
0.0093076434 -0.018546296 0.16066039
0.056930952 -0.00056623202 0.1553486
0.061416052 0.0039331927 0.15163901
0.077478886 0.02461879 0.14060213
0.065552384 0.039294045 0.14274776
0.086888142 0.02807471 0.13478746
0.097447909 0.041826196 0.12321708
0.088139296 0.056286901 0.12350399
0.07801564 0.053608045 0.13149691
0.074505411 0.045938004 0.13622618
0.11436225 0.045649193 0.10748851
0.11830309 0.046085428 0.10355016
0.1158574 0.064148881 0.094143793
0.12576514 0.069842227 0.075596295
0.11428061 0.083966106 0.078024633
0.12310172 0.087063827 0.05884527
0.14354576 0.07053408 -0.036438979
0.12368284 0.10162586 -0.025712293
0.12371894 0.080555283 -0.067140527
0.11389107 0.088543251 -0.07359264
0.1187486 0.086421154 -0.068407498
0.1327444 0.078766204 -0.051506869
0.12896922 0.080836564 -0.056076832
0.11783624 0.093618624 -0.059891947
0.1218487 0.089924142 -0.057199132
0.12328302 0.050236974 -0.095534392
0.11934226 0.055859886 -0.095974937
0.11051196 0.059667274 -0.10283489
0.11109394 0.075574577 -0.090227589
0.11202651 0.034868859 -0.11517389
0.084691092 0.062423751 -0.12323728
0.10124522 0.063007139 -0.10951459
0.091264173 0.035878405 -0.12955247
0.091470279 0.028179407 -0.13241693
0.073450401 0.027625108 -0.14184469
0.064836107 0.042368304 -0.14230926
0.07518819 0.046756558 -0.13556406
0.087685131 0.049159396 -0.12719752
0.0796974 0.055070098 -0.12996076
0.072164968 0.012679915 -0.14525384
0.051611558 0.019549973 -0.15217119
0.058549762 0.029882343 -0.14791062
0.04768946 -0.0094739879 -0.15516834
0.029979577 -0.030637173 -0.15702006
0.036783058 -0.024393935 -0.15693864
0.0092233047 -0.041482124 -0.1568139
0.032515913 -0.044223431 -0.15491177
0.016577633 -0.030490097 -0.15866141
0.027683886 -0.02185571 -0.15838051
0.03231892 -0.018859657 -0.15818955
0.023332838 -0.012498099 -0.15981252
0.006825313 -0.052329078 -0.15389434
0.015657557 -0.05708449 -0.15270394
0.00091915665 -0.054468602 -0.15325664
0.0035066053 -0.063084997 -0.15052056
-0.0092337467 -0.042934652 -0.15603785
-0.004660618 -0.081955679 -0.1423246
-0.038242791 -0.073321797 -0.13915567
-0.035264064 -0.083223216 -0.13501033
-0.026270909 -0.070928864 -0.14340581
-0.029532205 -0.062823363 -0.14625439
-0.038609218 -0.091143966 -0.12878866
-0.042082183 -0.094364561 -0.12529941
-0.050262928 -0.091417 -0.12382752
-0.058661383 -0.093729235 -0.11845816
-0.04608009 -0.097033076 -0.12163602
-0.052291036 -0.095604807 -0.11992729
-0.03838025 -0.091279358 -0.12881525
-0.044511043 -0.077428661 -0.1349659
-0.036299042 -0.092839845 -0.12857734
-0.036582679 -0.087413043 -0.1317374
-0.043323353 -0.0783507 -0.13483894
-0.048697487 -0.10846506 -0.11106672
-0.04341485 -0.11135711 -0.11130934
-0.04764992 -0.12106499 -0.10052782
-0.058426563 -0.10994037 -0.10467274
-0.047473565 -0.11243752 -0.10822742
-0.062456999 -0.11348052 -0.097828895
-0.062540606 -0.11497338 -0.096232913
-0.070193425 -0.10648766 -0.099648423
-0.060570311 -0.11426363 -0.098318592
-0.063667104 -0.10580321 -0.10529261
-0.059745762 -0.10109755 -0.11148633
-0.050728027 -0.10256848 -0.11522843
-0.07421542 -0.12866856 -0.066513568
-0.081565715 -0.11166538 -0.084668539
-0.07121969 -0.1139515 -0.090393379
-0.07175377 -0.13707756 -0.052329235
-0.072646953 -0.13324293 -0.058824569
-0.071100406 -0.13163188 -0.064216971
-0.077358775 -0.13892001 -0.036436204
-0.074762173 -0.13948868 -0.0397605
-0.065446757 -0.14185925 -0.050799832
-0.088027298 -0.12396909 -0.055734072
-0.083965816 -0.13617584 -0.02775527
-0.07401754 -0.14423355 -0.02254197
-0.098459587 -0.12703648 0.019658661
-0.099444091 -0.12774758 0.0096655721
-0.094607383 -0.13130933 -0.0006023082
-0.079367951 -0.13269694 0.049811974
-0.099841371 -0.12128773 0.040345356
-0.09138602 -0.12582529 0.044757999
-0.092781104 -0.1270152 0.03890368
-0.098835692 -0.10987911 0.067487426
-0.10994682 -0.099955991 0.069661953
-0.088543601 -0.10432132 0.08702343
-0.081710272 -0.10728719 0.089561008
-0.08850868 -0.10146555 0.09053722
-0.079102613 -0.098477609 0.10145108
-0.080430709 -0.082660459 0.11508992
-0.073594064 -0.084349766 0.11769735
-0.066200174 -0.083818384 0.12246836
-0.061897587 -0.084726125 0.12334634
-0.052372027 -0.074782066 0.13374747
-0.048973866 -0.052052952 0.14648807
-0.064375795 -0.050705347 0.14247888
-0.060647558 -0.044647384 0.14640194
-0.055240229 -0.045255095 0.14774373
-0.029772127 -0.038152356 0.15512539
-0.016120566 -0.017921889 0.16138744
-0.029650014 -0.010801949 0.16193299
0.024009513 0.012077634 0.16016102
0.025057061 0.034195304 0.15835963
0.040270492 0.060981639 0.14827642
0.065256417 0.058049031 0.13715307
0.080372199 0.067459717 0.12378699
0.094119012 0.069209948 0.11212921
0.090814017 0.071126454 0.11375877
0.075963505 0.085696541 0.11725572
0.10470277 0.087144747 0.087835357
0.1044569 0.10410492 0.070103146
0.098371901 0.10684916 0.075694345
0.10764693 0.1051649 0.062419545
0.10428578 0.11691702 0.049186308
0.10569394 0.12294708 0.029301655
0.1214112 0.098563008 -0.042238429
0.11335026 0.11002042 -0.040197559
0.10723717 0.12305152 -0.022839021
0.11606488 0.097220093 -0.057847477
0.10139306 0.11614235 -0.057474248
0.079101078 0.055194255 -0.13020214
0.056277238 0.05057133 -0.14402522
0.057701547 0.050237689 -0.14341524
0.046874985 0.046341337 -0.14919777
0.037157532 0.022333033 -0.15636045
0.051902976 0.027661357 -0.15115273
0.035916582 0.030569062 -0.15571699
0.030065756 0.04372992 -0.15557429
0.031431906 0.0097487466 -0.15860236
0.016998241 0.03344192 -0.16034016
0.015597651 -0.0015696443 -0.16160688
0.0036169786 -0.017939551 -0.16100188
-0.0079150107 0.00022228929 -0.16364579
-0.0016278514 0.0059503256 -0.16358532
-0.025909381 -0.047716334 -0.15268186
-0.017420471 -0.036908582 -0.15700409
-0.027509397 -0.040720452 -0.15461393
-0.022490311 -0.028398234 -0.15898211
-0.038459666 -0.018798651 -0.15956607
-0.041074846 -0.022370372 -0.15815993
-0.039790802 -0.040593468 -0.15292209
-0.061273176 -0.073223718 -0.13140672
-0.062294375 -0.064272724 -0.13617849
-0.053337149 -0.066088475 -0.13839212
-0.066361286 -0.089070655 -0.11827558
-0.061025396 -0.078947484 -0.12776479
-0.079059228 -0.070848525 -0.12470692
-0.073486961 -0.052536469 -0.13834006
-0.076010562 -0.060544051 -0.13293034
-0.085735552 -0.096587159 -0.098574936
-0.099297352 -0.089833103 -0.095187746
-0.10465956 -0.09238635 -0.086571947
-0.096572146 -0.11375807 -0.063270494
-0.098326899 -0.11074301 -0.06647642
-0.10331889 -0.11022352 -0.060136478
-0.10845998 -0.1115575 -0.04815419
-0.10895693 -0.10125169 -0.068643615
-0.11136549 -0.11663841 -0.023357408
-0.10556517 -0.12059925 -0.02549793
-0.10544262 -0.11711895 -0.039661538
-0.10102843 -0.12439192 -0.024792628
-0.12316919 -0.10608552 -0.027115146
-0.10397622 -0.12419739 -0.0089426655
-0.10928518 -0.12007495 -0.0024103411
-0.11278951 -0.11735772 0.004770963
-0.10020676 -0.12714484 0.00094243995
-0.11219153 -0.11781132 0.0018612866
-0.1221483 -0.10813051 0.020660253
-0.11114676 -0.11115558 0.043733351
-0.1197703 -0.10259072 0.047573492
-0.12362315 -0.081768408 0.079818197
-0.13358292 -0.073516384 0.079227634
-0.13661808 -0.070437871 0.079848684
-0.14493071 -0.074994713 0.060690183
-0.11042832 -0.075036168 0.10080502
-0.10115949 -0.071550854 0.11135329
-0.10688484 -0.064303383 0.11380273
-0.10618153 -0.062513307 0.11518472
-0.093558297 -0.069097281 0.11794862
-0.095571823 -0.052963592 0.12821029
-0.10558079 -0.04444778 0.12836702
-0.099074155 -0.049191844 0.12878831
-0.11157542 -0.051182289 0.12039902
-0.075525865 -0.052654013 0.13746564
-0.085598074 -0.040990643 0.13966326
-0.084439397 -0.019868907 0.14958462
-0.059852988 -0.021801626 0.15522183
-0.065106876 -0.022592848 0.15370913
-0.062586732 -0.018120216 0.15597914
-0.04414006 0.0024761884 0.16337007
-0.04591288 -0.011348848 0.16045648
-0.015571455 0.02399387 0.16557848
0.0060500884 0.048829962 0.16128778
0.012917087 0.044122148 0.16027586
0.034865495 0.056769419 0.15132134
0.030715639 0.076197125 0.14769791
0.020861486 0.089353092 0.14754055
0.041623924 0.084406763 0.13979912
0.058085699 0.092604205 0.12639555
0.077600069 0.10155796 0.10526238
0.073875099 0.10589115 0.10542711
0.067250758 0.11996034 0.10065996
0.078182645 0.1161265 0.092222758
0.090453699 0.11646667 0.075920545
0.094678767 0.11783763 0.067469656
0.092987724 0.12337909 0.061967857
0.084518336 0.12901084 0.068835922
0.078133292 0.13445504 0.071712442
0.07552737 0.14262043 0.063465938
0.096015081 0.13313617 0.033341002
0.089212656 0.14566405 0.010992823
0.09695752 0.13726711 -0.0062431064
0.093423225 0.1414254 -0.0064375834
0.09359169 0.14118208 0.0060721799
0.097610608 0.13664035 -0.0069352649
0.10357142 0.12554064 -0.029206222
0.092784382 0.13580649 -0.03711601
0.087782823 0.14176999 -0.03748998
0.086218394 0.12663548 -0.069476441
0.087714978 0.12003645 -0.075528465
0.081170119 0.12489731 -0.079137653
0.067800991 0.13847639 -0.081251644
0.077671021 0.14508955 -0.055532049
0.060742438 0.12028848 -0.10642877
0.069161192 0.12250647 -0.096350491
0.055789188 0.08615455 -0.13118008
0.056210518 0.09884128 -0.1244057
0.051299881 0.099970378 -0.12707214
0.045412309 0.09851364 -0.13148996
0.035790477 0.10568837 -0.13384205
0.041811392 0.10866481 -0.12842132
0.030100118 0.080559313 -0.14649652
0.034678526 0.089215145 -0.14166659
0.028670384 0.09253449 -0.14313865
0.039180543 0.10005247 -0.13448128
0.038920205 0.06162231 -0.14873764
0.016917305 0.050470758 -0.158216
0.0068850387 0.042618845 -0.16163662
0.0096008526 0.038145456 -0.16146453
0.020652976 0.042223033 -0.15892142
-0.015874781 0.045892883 -0.16526072
-0.005646606 0.061514691 -0.16217755
-0.047150455 0.015382905 -0.16520631
-0.038036492 0.027227176 -0.16675423
-0.031158499 0.02263247 -0.16623007
-0.062631875 -0.017816212 -0.15609062
-0.051697973 -0.024934966 -0.1558513
-0.061189536 -0.01496898 -0.15708096
-0.054141086 -0.0087748719 -0.15985499
-0.056467798 0.0033161894 -0.16254996
-0.057044912 0.0046567153 -0.16245857
-0.064752139 -0.019284442 -0.15495466
-0.070167907 -0.021123098 -0.15304667
-0.075711913 -0.046282481 -0.14100558
-0.076017141 -0.034195706 -0.14623219
-0.079395048 -0.033678234 -0.14538993
-0.092393547 -0.043754369 -0.13541615
-0.07511735 -0.051202893 -0.13838419
-0.094430774 -0.062934145 -0.12232008
-0.098634697 -0.062641256 -0.12038098
-0.080566913 -0.057891931 -0.1326088
-0.084424235 -0.05507309 -0.13247646
-0.10144179 -0.046512205 -0.12923905
-0.10499192 -0.066343643 -0.11294688
-0.10542718 -0.060679793 -0.11710136
-0.11902529 -0.070349902 -0.098666273
-0.11759427 -0.066293985 -0.10342786
-0.10557844 -0.082769573 -0.096987456
-0.11007114 -0.088025391 -0.086657301
-0.1199155 -0.081372634 -0.084938832
-0.12021653 -0.081025049 -0.084922068
-0.12291266 -0.088520542 -0.070970289
-0.13127372 -0.077665098 -0.07620123
-0.13782355 -0.068179674 -0.081492864
-0.12995315 -0.069236815 -0.089669667
-0.12433549 -0.069992878 -0.093599334
-0.12660691 -0.085057929 -0.071572438
-0.14176552 -0.078940362 -0.058644004
-0.13123001 -0.097871952 -0.032525394
-0.13208027 -0.094811372 -0.041422453
-0.1408475 -0.091501743 -0.025577188
-0.14456421 -0.089524694 -0.01583226
-0.14326333 -0.091983855 -0.0061904257
-0.14595522 -0.087987229 -0.018024856
-0.14807987 -0.086217389 -0.021043982
-0.13974471 -0.087247081 -0.044672925
-0.14570805 -0.085378364 -0.031968135
-0.1397081 -0.093150653 0.021555189
-0.14780079 -0.087020122 0.012896136
-0.14228535 -0.070382647 0.073210038
-0.14793731 -0.066722326 0.070515081
-0.13529627 -0.057044916 0.097269028
-0.13971862 -0.051463019 0.099060841
-0.13732588 -0.051762369 0.10084129
-0.14051761 -0.04548946 0.10384298
-0.15372808 -0.041476462 0.09566509
-0.12753399 -0.041085802 0.11744805
-0.11809988 -0.030648666 0.13024266
-0.10705585 -0.033821128 0.13427252
-0.12703508 -0.015736219 0.13435476
-0.13199279 -0.027915927 0.1241795
-0.10416336 -0.024800405 0.14010099
-0.087060608 0.022610525 0.16158745
0.017962832 0.091260634 0.14803739
0.035174593 0.10990174 0.13185839
0.041532069 0.1149651 0.12521353
0.023613682 0.12134316 0.13271432
0.028453344 0.12312112 0.12881243
0.013027382 0.12492034 0.13675392
0.048190471 0.13346291 0.10723472
0.027417302 0.13991638 0.11914305
0.056826346 0.13848856 0.094277956
0.049117569 0.15057887 0.090510532
0.061789054 0.15817113 0.062439907
0.064130738 0.16651152 -0.040059451
0.068795577 0.15296267 -0.058570821
0.06245809 0.15217827 -0.071279936
0.058460571 0.15254289 -0.076254159
0.053226508 0.13085426 -0.10480027
0.041164551 0.14470242 -0.10423674
0.045194834 0.15829602 -0.086866535
0.046675596 0.12519023 -0.11482102
0.044815596 0.11667559 -0.12219762
0.02141697 0.10534594 -0.14173867
0.021510327 0.1153676 -0.13680743
0.020980984 0.12171654 -0.13421692
0.0063492353 0.089143656 -0.1530523
-0.0025856998 0.0874127 -0.15679403
0.00043054213 0.073338322 -0.15864621
-0.017700829 0.081760727 -0.16146551
-0.004699837 0.098535039 -0.15404911
-0.00021477578 0.10225859 -0.15163143
-0.017949032 0.053636197 -0.16518079
-0.025186803 0.045764096 -0.1662695
-0.027089741 0.052310091 -0.16620417
-0.041567281 0.065613456 -0.16694163
-0.032495208 0.061948556 -0.1663135
-0.035527099 0.037815243 -0.16697587
-0.031906657 0.041680146 -0.16696247
-0.058275823 0.034398701 -0.16665922
-0.069735274 0.013733206 -0.16268799
-0.058426328 0.024442397 -0.16574225
-0.074745446 0.011383996 -0.16129589
-0.079627715 -0.008103963 -0.1549761
-0.10092645 -0.016200578 -0.14545321
-0.09227097 -0.0099337101 -0.15099336
-0.10134964 -0.0084693031 -0.1484423
-0.10586612 -0.032673489 -0.13536702
-0.11537997 -0.031874552 -0.13094157
-0.12253653 -0.024723032 -0.13138942
-0.11381963 -0.012947514 -0.14177258
-0.13563666 -0.044727284 -0.1086344
-0.14308393 -0.036051866 -0.11015636
-0.1472266 -0.03789505 -0.10507674
-0.14874892 -0.037450012 -0.10423057
-0.1374899 -0.045219265 -0.1066088
-0.14492525 -0.033626191 -0.11077719
-0.14306685 -0.031033324 -0.114627
-0.13537879 -0.041122861 -0.11217858
-0.14419343 -0.058915343 -0.086275145
-0.14004636 -0.058785971 -0.090549432
-0.13852146 -0.063040562 -0.087637007
-0.1485043 -0.059777621 -0.079663977
-0.15347722 -0.047625251 -0.08920747
-0.14586824 -0.040677264 -0.10449398
-0.15398568 -0.0422002 -0.094573252
-0.16570751 -0.059761632 -0.052372754
-0.15775263 -0.055370051 -0.074380003
-0.1615402 -0.056545213 -0.066091388
-0.15498412 -0.080179155 -0.020264914
-0.15870762 -0.070298605 -0.044017836
-0.1613992 -0.073854066 -0.018836973
-0.16288437 -0.072492778 -0.018859694
-0.16232574 -0.073694922 -0.013848677
-0.17313169 -0.060092852 -0.031631682
-0.16341075 -0.073401242 -0.0097523974
-0.15446946 -0.081266627 0.010841529
-0.16651759 -0.069833323 0.01295857
-0.16892575 -0.067726851 0.011725787
-0.17024352 -0.066973716 0.0036387427
-0.16558605 -0.071370624 -0.0019382
-0.15178889 -0.070555165 0.057801854
-0.16247272 -0.06585823 0.045085534
-0.1705467 -0.041761354 0.075655781
-0.16518702 -0.036531299 0.089745387
-0.17717616 -0.024629004 0.089865699
-0.18036167 -0.026473688 0.083154455
-0.18292962 -0.037130807 0.063725419
-0.1790968 -0.034781579 0.074361175
-0.1501966 -0.026305713 0.11280411
-0.15400691 -0.028791226 0.10736265
-0.15969917 -0.019724037 0.11047264
-0.13641152 -0.015101304 0.12938656
-0.15528071 -0.0075909127 0.122656
-0.15129982 -0.0089793345 0.12448289
-0.12504619 -0.0024176589 0.14184196
-0.12110007 0.010703303 0.14889951
-0.1073561 0.0080940109 0.15291636
-0.12286744 0.017438734 0.15081762
-0.14033055 -0.00047218995 0.1356706
-0.12294605 0.031662278 0.15530552
-0.094729289 0.051905651 0.16543296
-0.091861017 0.052904841 0.16598763
-0.012485818 0.13259631 0.14521447
0.018259345 0.13563591 0.12796699
0.00068173226 0.1538574 0.12789215
0.027288711 0.14393237 0.1164332
0.0084198453 0.15630738 0.12134151
0.054848082 0.17427456 -0.044555876
0.046741936 0.1844286 -0.040234428
0.044581395 0.1904736 -0.026244331
0.043042645 0.16607821 -0.079773679
0.041215256 0.16060814 -0.08873415
0.030206675 0.15443608 -0.10576402
0.029408921 0.1597864 -0.10191225
0.011301063 0.16601558 -0.11235777
0.028151022 0.16491054 -0.098631606
0.022859478 0.14125705 -0.1215094
0.026524201 0.14190149 -0.118379
0.013372706 0.15614638 -0.11790957
-0.012558355 0.10655087 -0.15428396
-0.01818403 0.11558117 -0.15343221
-0.024238423 0.090700805 -0.16122878
-0.033531766 0.099243961 -0.16159241
-0.031343926 0.11460495 -0.15783927
-0.051159278 0.068508111 -0.16758026
-0.065231666 0.081170931 -0.16787072
-0.055575792 0.066019572 -0.16798352
-0.08395201 0.049171023 -0.16653788
-0.067475431 0.051876046 -0.16768602
-0.096982874 0.035117246 -0.16271465
-0.079995386 0.050397996 -0.16719322
-0.084882423 0.031069592 -0.16366123
-0.079999544 0.044426873 -0.1662885
-0.10369778 0.030288842 -0.15994947
-0.087536946 0.051490407 -0.16634442
-0.097406261 0.041048747 -0.16351666
-0.12427487 0.0040910328 -0.14515349
-0.11695088 0.0085590202 -0.14955063
-0.12381518 0.019087557 -0.15106717
-0.11999308 0.018017597 -0.15214199
-0.13117108 -0.00028161763 -0.14006069
-0.12468889 0.0010757083 -0.14367656
-0.14432737 -0.023352431 -0.11900879
-0.15686755 -0.033612061 -0.10073825
-0.16363262 -0.045934808 -0.079070844
-0.16456319 -0.044592962 -0.079650573
-0.18288705 -0.027777035 -0.078119949
-0.17149797 -0.029214181 -0.090278015
-0.16488332 -0.029279791 -0.097120002
-0.1774703 -0.047058985 -0.055629667
-0.18844993 -0.040217377 -0.046334501
-0.17767794 -0.055645242 -0.031701989
-0.18436776 -0.052812703 -0.01239445
-0.18489133 -0.050822522 -0.02278473
-0.18211848 -0.054700803 -0.014515494
-0.18742397 -0.050645541 -0.0063512279
-0.18473342 -0.050205734 -0.02820617
-0.18799749 -0.044075556 -0.036888447
-0.17743587 -0.060073387 -0.003310815
-0.19275764 -0.045061212 0.00022122863
-0.19390458 -0.043915786 -0.0017750751
-0.18403988 -0.05070857 0.027235398
-0.18564332 -0.041304518 0.050237648
-0.18995786 -0.044334482 0.029006796
-0.18824759 -0.046405498 0.02765863
-0.1926741 -0.041558955 0.029295968
-0.18887515 -0.033228267 0.0603071
-0.19558233 -0.023734022 0.064952344
-0.18493158 -0.01404216 0.092067525
-0.17332955 -0.016884362 0.10117415
-0.17050354 -0.010481896 0.10916218
-0.17613071 -0.0075735967 0.10674458
-0.18755728 0.0012342088 0.10430226
-0.18062368 0.0002265955 0.10952675
-0.18574145 0.0028012868 0.10721771
-0.19029737 -0.0059914389 0.094769232
-0.16906033 -0.00069678924 0.11772963
-0.15657745 0.00043353581 0.12691805
-0.1684549 0.010301551 0.12565793
-0.17830761 0.018212192 0.12435228
-0.15091157 0.032790601 0.14589319
-0.15966389 0.03088768 0.14121351
-0.13749933 0.049299799 0.15605037
-0.077117935 0.10727109 0.1704268
-0.035313904 0.15073012 0.14698218
-0.048633095 0.14141905 0.15699546
-0.0051051509 0.16071384 0.12722857
-0.023069002 0.17058568 0.13168581
-0.0010081084 0.17883527 0.11170574
0.012579949 0.18781276 0.090555824
0.0055616056 0.18582654 0.099980131
0.03257329 0.20221508 -0.027172973
0.024019949 0.20967506 -0.030552929
0.020261621 0.2037466 -0.05670353
-0.0060952124 0.19086835 -0.10556371
0.0016339186 0.1843725 -0.10464764
-0.019270472 0.14013635 -0.14497148
-0.034695387 0.15526032 -0.14492671
-0.025089296 0.16382682 -0.13651368
-0.03590253 0.12996535 -0.15444766
-0.049116813 0.11608066 -0.16135605
-0.047553763 0.14942604 -0.15194234
-0.052381288 0.14393401 -0.15499133
-0.064261273 0.097766645 -0.16662918
-0.056968447 0.098978631 -0.1660389
-0.081704594 0.096761681 -0.16787043
-0.069190741 0.11035896 -0.16600186
-0.083518803 0.076843567 -0.16816591
-0.10048527 0.070935033 -0.16688798
-0.090984702 0.082380287 -0.1683256
-0.10185021 0.085217983 -0.16767244
-0.088254124 0.10135178 -0.1679972
-0.095022731 0.085771225 -0.16809028
-0.12027036 0.053454716 -0.16135259
-0.11671336 0.060142796 -0.16345437
-0.12667243 0.06439998 -0.16256317
-0.11802004 0.077208795 -0.16551593
-0.13042025 0.027894691 -0.15200897
-0.12793784 0.036580931 -0.15524237
-0.13132633 0.025861155 -0.15081188
-0.13610397 0.051265009 -0.15701942
-0.15860415 0.031001767 -0.14177346
-0.17481504 -0.011832556 -0.1042561
-0.17332707 -0.011886709 -0.10548532
-0.18273304 -0.004809279 -0.10340396
-0.18534908 0.0096089412 -0.11332909
-0.17808299 -0.020984959 -0.092025332
-0.19113086 -0.025028691 -0.070805967
-0.18885413 -0.021628242 -0.078259036
-0.18941328 -0.015983578 -0.084887862
-0.1819503 -0.021398483 -0.08769244
-0.1989678 -0.0099596875 -0.080037542
-0.19496046 -0.013271431 -0.081058398
-0.19965726 -0.012358896 -0.075974479
-0.192586 -0.0256385 -0.066850983
-0.19560723 -0.021950332 -0.067893013
-0.18879241 -0.032648984 -0.061473858
-0.19797774 -0.023635551 -0.061015829
-0.20831703 -0.014419587 -0.059377238
-0.19905579 -0.032618728 -0.038210239
-0.20484298 -0.028275754 -0.033075403
-0.19841637 -0.039427631 0.003915844
-0.2024647 -0.033217188 0.023560643
-0.19903587 -0.035387937 0.02851228
-0.19786924 -0.029610483 0.048971184
-0.2142521 -0.020529212 0.026366288
-0.19503535 0.013885027 0.10849921
-0.20431425 0.026813233 0.11128924
-0.18972145 0.032716878 0.12581733
-0.18821746 0.044656664 0.13352554
-0.16719072 0.031649768 0.13793053
-0.16099352 0.050703928 0.14859173
-0.16308488 0.053679883 0.14887117
-0.074073076 0.14402226 0.16071896
-0.083863169 0.1288213 0.16530527
-0.064618178 0.1538163 0.15846725
-0.066213101 0.15325232 0.15631273
-0.040771529 0.17042373 0.14060865
-0.04191329 0.19020708 0.13076222
-0.024916679 0.19626279 0.11602134
-0.016408002 0.208492 0.098496057
0.0037800868 0.21762365 0.060510136
0.0044479771 0.22990333 0.026452458
0.00056739175 0.21062939 -0.076628
0.0035785383 0.2090295 -0.074842729
-0.002643907 0.22502081 -0.05840541
-0.011695073 0.19548085 -0.10623356
-0.010674447 0.19739322 -0.10367749
-0.019710563 0.21207008 -0.098405704
-0.028271222 0.19966589 -0.11587103
-0.050722908 0.16837995 -0.14570215
-0.054432545 0.17269722 -0.1453878
-0.04347863 0.17528728 -0.1394559
-0.067177534 0.14898244 -0.15775116
-0.073826611 0.13587774 -0.16235954
-0.075619556 0.13132288 -0.16330288
-0.07186912 0.13135079 -0.16280018
-0.092470273 0.11929043 -0.16673997
-0.097223744 0.13533375 -0.16572309
-0.080270678 0.1320278 -0.16379739
-0.084687084 0.14401172 -0.1625604
-0.087745264 0.13637279 -0.16413411
-0.10332036 0.094671369 -0.16794619
-0.10396636 0.10469525 -0.16782793
-0.12448845 0.097261988 -0.16662362
-0.12003198 0.10044525 -0.16716045
-0.10597374 0.11498535 -0.16770469
-0.10801544 0.11683042 -0.16766353
-0.15996017 0.043448653 -0.1463469
-0.15025614 0.050770409 -0.15277541
-0.16746658 0.046261124 -0.14446148
-0.16660842 0.048013248 -0.14543192
-0.16326985 0.059371237 -0.15085846
-0.18007991 0.033986062 -0.13225827
-0.18388699 0.036162104 -0.13124399
-0.198276 0.016536282 -0.10788356
-0.19702937 0.020412484 -0.11222687
-0.21123078 -0.0012541129 -0.074945018
-0.20560728 -0.0010480847 -0.082741238
-0.20881011 0.0035574902 -0.084395789
-0.21221897 0.0036288453 -0.079945169
-0.21006124 0.0073489738 -0.087448969
-0.20984291 0.016461039 -0.097129397
-0.21241869 0.0078796158 -0.085481755
-0.22916205 0.0029732774 -0.050115008
-0.21870831 -0.005888388 -0.0551119
-0.22377934 0.0048897387 -0.064389586
-0.21649036 -0.01541759 -0.036192689
-0.2251208 -0.0061566946 -0.037571892
-0.22285037 -0.012949559 0.019451382
-0.23167406 -0.0038895637 0.019266194
-0.21463227 0.02535017 0.10099597
-0.19502139 0.038841285 0.12614967
-0.19096985 0.044838596 0.13198799
-0.20988011 0.051121645 0.12159975
-0.18223344 0.072435416 0.14705902
-0.034067575 0.20431876 0.11657766
-0.028541109 0.22068426 0.097427875
-0.0065510413 0.23427689 0.04634719
-0.0068523167 0.24041753 0.028221974
-0.00059276575 0.23515715 -0.025078107
-0.019468954 0.22706142 -0.08068677
-0.036166992 0.20857836 -0.11494371
-0.054087706 0.19723976 -0.1327184
-0.038486023 0.21208876 -0.1132806
-0.056503046 0.18890184 -0.13889444
-0.054177307 0.18168069 -0.14130352
-0.080356337 0.17226496 -0.15341055
-0.13229784 0.12266481 -0.16626023
-0.12892182 0.13024803 -0.16562518
-0.1485872 0.086225741 -0.16172792
-0.16149998 0.090395927 -0.15896051
-0.1606379 0.098926239 -0.16015404
-0.14938149 0.11081187 -0.16328196
-0.18039215 0.06424512 -0.14603575
-0.17032273 0.070612341 -0.15225145
-0.17960902 0.069144249 -0.14780612
-0.18269089 0.073482372 -0.1470207
-0.17790192 0.072426289 -0.14942887
-0.18779331 0.047227412 -0.13514856
-0.19035241 0.044674158 -0.13224737
-0.19711076 0.048545785 -0.13044827
-0.19757766 0.048144754 -0.12996872
-0.19361715 0.057916339 -0.13645189
-0.20342307 0.037099127 -0.11932928
-0.21785581 0.028750828 -0.10110389
-0.21380036 0.040590059 -0.11292305
-0.23271105 0.024440492 -0.076496251
-0.22186188 0.027948197 -0.095428951
-0.24188028 0.018896464 -0.049959652
-0.23752376 0.022115756 -0.064875297
-0.23931628 0.022188906 -0.061246928
-0.23539943 0.0061286264 -0.043574814
-0.23682091 0.0017874496 -0.021819741
-0.23805168 0.0016668156 -0.012342343
-0.24439096 0.016454585 -0.037330218
-0.24712321 0.013145225 -0.0093818353
-0.23830727 0.011694937 0.047066383
-0.24059875 0.016301716 0.048919696
0.08024402 -0.18036689 0.027673846
0.077253133 -0.18370201 0.029658802
0.080982164 -0.18207416 0.008096287
0.084373161 -0.1786724 0.014918601
0.078958899 -0.18408623 0.019242313
0.12245805 -0.14059396 0.01926486
0.056700874 -0.20009062 -0.0094287628
0.054858837 -0.20171507 -0.0036888176
0.081437983 -0.18041742 -0.004155708
0.061945945 -0.19653186 -0.016209815
0.069452867 -0.19074301 -0.0093570026
0.1189239 -0.14412601 -0.0079787495
0.13026465 -0.13276984 -0.0017716208
0.078871876 -0.18415911 -0.0022133337
0.074262135 -0.18646434 -0.030275663
0.084395066 -0.1787664 -0.034923382
0.061237235 -0.19649373 -0.031662311
0.069160394 -0.19104853 -0.023585875
0.073412985 -0.18611836 -0.038324021
0.083979912 -0.17950536 -0.022795191
0.093943454 -0.16910958 -0.0022702545
0.081597202 -0.18017992 -0.041724589
0.084600158 -0.17734496 -0.034522392
0.07392516 -0.18527058 -0.048974521
0.078921564 -0.18187407 -0.040316589
0.085910164 -0.17672315 -0.037167616
0.085034765 -0.17672303 -0.043540947
0.078459688 -0.18148541 -0.049338516
0.10389987 -0.15915123 -0.0056631351
0.12638357 -0.13666442 -0.010978132
0.12950213 -0.13353512 -0.038492829
0.088092014 -0.17495681 -0.030343752
0.096040562 -0.16699082 0.00013158168
0.10206284 -0.16098362 -0.037523255
0.10431281 -0.15874164 -0.0026953642
0.1304379 -0.13261703 -0.019510629
0.082379699 -0.17710175 -0.043523531
0.074281581 -0.18411148 -0.052172504
0.078810804 -0.18039338 -0.055068478
0.076902702 -0.18101186 -0.066418678
0.088692859 -0.17033648 -0.069700673
0.088359989 -0.17287286 -0.057026617
0.1226782 -0.14036539 -0.041683029
0.12357389 -0.13948302 -0.03305126
0.12291022 -0.14012082 -0.0034162903
0.09328787 -0.16976207 -0.02648137
0.10214265 -0.16090086 -0.040559784
0.10217402 -0.16085561 0.0012006391
0.10470098 -0.15835226 -0.031119719
0.12068719 -0.14234939 -0.021255545
0.12821651 -0.13482434 -0.031393137
0.085596375 -0.17284338 -0.061660249
0.096083686 -0.16553135 -0.065738656
0.09336485 -0.1656068 -0.080927588
0.095795989 -0.16577017 -0.062007133
0.10154043 -0.15946241 -0.077494815
0.094690338 -0.16878982 -0.059849732
0.10663642 -0.15653786 -0.054878745
0.10692427 -0.15372853 -0.064864397
0.10541389 -0.15761946 -3.9657054e-05
0.10935409 -0.15368217 -0.0026361572
0.11222545 -0.15081739 -0.041452058
0.11757074 -0.14548424 -0.04933694
0.12703009 -0.13600306 -0.027610745
0.12832682 -0.13472033 -0.046395909
0.1315503 -0.13149115 0.00055177073
0.10777198 -0.15526538 -0.0017731824
0.11426897 -0.14877965 -0.043609671
0.11823093 -0.14480723 -0.0021079963
0.13383532 -0.12920758 -0.057711534
0.09335497 -0.16463113 -0.072620876
0.0954362 -0.16379111 -0.052131452
0.10891561 -0.15258335 -0.072883978
0.10778103 -0.15525973 -0.019922238
0.11197945 -0.15107146 -0.033085294
0.111026 -0.15201449 -0.010393223
0.11982697 -0.14321356 -0.057629097
0.11970135 -0.14333281 -0.00015054047
0.13348719 -0.12954612 -0.034283046
0.10738818 -0.15564702 -0.010217084
0.12196966 -0.14106187 -0.054330323
0.12582521 -0.1372077 -0.010613329
0.12685093 -0.1362059 0.00090836821
0.12840278 -0.13464931 -0.0068227574
0.13436434 -0.12868103 -0.05852161
0.13436334 -0.12869181 -0.026317643
0.13357638 -0.12947291 -0.012694418
0.11241455 -0.14931914 -0.061801024
0.11601017 -0.14534648 -0.078783169
0.11899063 -0.13956603 -0.092593342
0.12106471 -0.14198165 -0.00318176
0.12753852 -0.13551661 -0.064136967
0.11658061 -0.1464652 -0.022864059
0.12261432 -0.14042228 -0.041627787
0.12516266 -0.13787685 -0.066069849
0.12619719 -0.13685203 -0.055228926
0.13219544 -0.13085203 -0.013904748
0.12809367 -0.13493682 -0.019850466
0.13644104 -0.12707184 -0.064213037
0.14050998 -0.12129696 -0.082139403
0.13674578 -0.12020864 -0.10231202
0.13647081 -0.12200113 -0.094509147
0.14145634 -0.12159042 -0.01624174
0.14501849 -0.11801621 -0.055737365
0.1434868 -0.11955606 -0.003823431
0.13814774 -0.12490685 -0.061385967
0.13755798 -0.12548253 -0.046551127
0.14142191 -0.12161254 -0.030920275
0.14254422 -0.12051173 -0.048725829
0.14723434 -0.11581577 -0.040976793
0.16059925 -0.1014171 -0.06604223
0.16531295 -0.095688254 -0.069301374
0.14138028 -0.12165495 -0.05860807
0.14439909 -0.11865599 -0.0070731263
0.14737961 -0.11565137 -0.06006673
0.146118 -0.11693868 -0.0097929342
0.1518492 -0.11118139 -0.040701419
0.15945762 -0.10359847 -0.043018825
0.15686716 -0.10618731 -0.020407397
0.13611251 -0.12694159 -0.056795258
0.14089614 -0.12215158 -0.021252444
0.14275235 -0.1203042 -0.011592837
0.170137 -0.08787474 -0.076877207
0.17639352 -0.085690223 -0.05118027
0.17427917 -0.083432123 -0.078894086
0.18081208 -0.0753759 -0.076779775
0.15067706 -0.11238031 -0.026180208
0.15049124 -0.11255289 -0.017722771
0.15515032 -0.10789705 -0.016734058
0.16071506 -0.10233381 -0.039689098
0.16220175 -0.10083302 -0.025520757
0.14630516 -0.11675047 -0.043238793
0.15942411 -0.10361668 -0.0031277053
0.16540526 -0.097624406 -0.04019985
0.17554019 -0.087611757 -0.042721506
0.17757244 -0.08420597 -0.048556756
0.17925386 -0.080491975 -0.058951434
0.18824208 -0.068477109 -0.062180527
0.18111351 -0.077469476 -0.031815071
0.1475374 -0.11551842 -0.040954947
0.15669228 -0.10636299 -0.010392754
0.1491994 -0.11385813 -0.029949747
0.15484267 -0.10819817 -0.028193684
0.17101568 -0.092040583 -0.034451909
0.18174094 -0.078145064 -0.042574383
0.19477743 -0.061720885 -0.047597967
0.13740456 -0.12563252 0.0024087494
0.17608255 -0.086967014 -0.019258933
0.13884801 -0.12418827 -0.021444207
0.17617773 -0.086865984 -0.026440129
0.17549402 -0.087546393 -0.016229834
0.17506248 -0.087994389 -0.0093641337
0.17642176 -0.084496893 -0.028327676
0.18967421 -0.070343934 -0.025346609
0.18583687 -0.075639613 -0.012983491
0.19683905 -0.061015662 -0.012130171
0.18556002 -0.075977363 -0.016296467
0.14048442 -0.12254792 -0.018206745
0.14057982 -0.12245893 0.0024234888
0.18034127 -0.082688317 0.0026091167
0.18288201 -0.080149531 -0.0075054234
0.18268757 -0.080357291 0.0017719469
0.18682565 -0.073324993 -0.012237358
0.19248603 -0.067005619 -0.010268685
0.1990547 -0.05858602 -0.007631998
0.15580179 -0.10725266 -0.0084528076
0.19896591 -0.058479212 0.017084206
0.15345205 -0.10959917 0.014496482
0.16612738 -0.096927904 0.017985186
0.17607227 -0.086982757 0.0099231005
0.15807097 -0.10495923 0.011509594
0.1609368 -0.10209795 0.014641768
0.18871848 -0.071060106 0.022700671
0.13605927 -0.12699033 0.014485077
0.14023723 -0.12279493 0.029386945
0.14604263 -0.11698822 0.020094706
0.17888993 -0.082877077 0.037775397
0.18270922 -0.078097925 0.041530404
0.17905651 -0.082208425 0.047386125
0.19027419 -0.067753218 0.04192555
0.17701042 -0.0822528 0.058463257
0.13543718 -0.12760112 0.037372727
0.17054474 -0.092491984 0.020322992
0.15553023 -0.10750701 0.0076102228
0.16901591 -0.094036728 0.016082849
0.17440829 -0.088624105 0.038416654
0.16610968 -0.092861302 0.065041177
0.1754455 -0.082583807 0.071108073
0.15576947 -0.10728291 0.021631226
0.15880544 -0.10423503 0.040097009
0.1609991 -0.10204704 0.048232205
0.13530529 -0.12772825 0.013351743
0.13885626 -0.12419478 0.026917309
0.15424848 -0.10878571 0.01784802
0.15494171 -0.10811406 0.024096031
0.15636851 -0.10668872 0.039123278
0.1620193 -0.10103782 0.025037037
0.16572174 -0.097309671 0.01499576
0.16303529 -0.096509211 0.081449978
0.17035489 -0.090206683 0.06091328
0.17323858 -0.083620191 0.082213208
0.15753089 -0.09812852 0.089597791
0.14563243 -0.11740566 0.030738309
0.15880007 -0.10424764 0.033968117
0.13946469 -0.12358872 0.019006433
0.14481656 -0.11824017 0.045925435
0.14639522 -0.11664344 0.049853452
0.14991191 -0.11313399 0.011805459
0.15552896 -0.1075184 0.050622821
0.15786824 -0.10516697 0.019518793
0.15853971 -0.10230038 0.075177535
0.15074471 -0.10922693 0.079111278
0.14100145 -0.1220469 0.022669951
0.15579467 -0.10725576 0.049235929
0.15336223 -0.10969338 0.064286865
0.13972092 -0.1233367 0.046702255
0.14800316 -0.11504689 0.029052898
0.14659561 -0.11645231 0.06936641
0.15008366 -0.11296931 0.063554555
0.15131108 -0.11171989 0.066447064
0.15355103 -0.10948193 0.015549745
0.13834056 -0.12342276 0.0709543
0.14370097 -0.11934353 0.064842634
0.13622421 -0.12464502 0.082212567
0.13970152 -0.11933364 0.08975663
0.1260957 -0.13137415 0.099152304
0.12513416 -0.13596481 0.079836547
0.12821232 -0.13138045 0.082838677
0.11790901 -0.14096209 0.093302235
0.12001299 -0.13950717 0.089658722
0.12164254 -0.13547464 0.10117423
0.1180729 -0.14330518 0.077456586
0.11681803 -0.14396815 0.074989103
0.11575746 -0.1428908 0.095642656
0.12395402 -0.13907631 0.025862308
0.12953624 -0.13351248 0.062191784
0.13479365 -0.12825912 0.064539164
0.11494733 -0.14701273 0.073719822
0.11524538 -0.14780298 0.028439825
0.12076045 -0.14228684 0.011332798
0.11995561 -0.14308231 0.052641273
0.13388592 -0.12916279 0.043102
0.094289735 -0.16432013 0.081560202
0.12330903 -0.13974102 0.02089607
0.13395895 -0.12907167 0.062642917
0.11743588 -0.14561893 0.011738187
0.090063319 -0.17014007 0.067355394
0.081671484 -0.17880093 0.057864666
0.096065432 -0.16503236 0.07172206
0.10240599 -0.16064817 0.024481202
0.10534104 -0.15770158 0.040776219
0.10679669 -0.15623592 0.0092338836
0.11079645 -0.15225898 0.024052234
0.11680186 -0.14623915 0.029329551
0.12041729 -0.14262976 0.012290522
0.12117946 -0.14185788 0.028211845
0.1297079 -0.13332354 0.030221162
0.13364084 -0.12940656 0.006961402
0.10646246 -0.15657239 0.040809814
0.11217111 -0.15088558 0.053036809
0.12810168 -0.13493791 0.014292021
0.13008645 -0.13295352 0.029025169
0.090100206 -0.17152272 0.064853773
0.10457291 -0.15846607 0.035880055
0.11796315 -0.14506802 0.0090625426
0.11745109 -0.14558895 0.026101243
0.12423327 -0.13881922 0.031481218
0.12557292 -0.13747868 0.0076620798
0.09383712 -0.16919297 0.014510632
0.11477274 -0.14825863 0.031213591
0.082981259 -0.17515959 0.050812893
0.081182621 -0.18048699 0.044435907
0.083069839 -0.17907135 0.043591563
0.093659863 -0.16938043 0.033254802
0.11449917 -0.14855224 0.027022252
0.1209124 -0.1421175 0.0061441977
0.12516846 -0.13788515 0.019956224
0.13009974 -0.13295749 0.028323552
0.099029183 -0.16401371 0.0054642865
0.11027055 -0.15277068 0.02969286
0.12327661 -0.13975973 0.027350994
0.12679805 -0.13624558 0.011814816
0.053542934 -0.18193352 0.044928495
0.0325091 -0.17956471 0.040290568
0.047579404 -0.18356308 0.044697978
0.052594278 -0.17027189 0.069397435
0.049995132 -0.17861526 0.058985766
0.045239434 -0.17290418 0.062396135
0.041028898 -0.1722378 0.061218422
0.04983734 -0.17444555 0.062409453
0.069346525 -0.15180101 0.091971874
0.07990662 -0.13204351 0.10535336
0.080245666 -0.12790506 0.10747477
0.10315075 -0.11779856 0.10840925
0.093850784 -0.12171764 0.10905019
0.10977015 -0.12986003 0.097206287
0.12061029 -0.1067457 0.10929689
0.1434126 -0.091224931 0.095355153
0.13415043 -0.10184088 0.097917646
0.12714002 -0.09216819 0.10662489
0.12972194 -0.088400975 0.10608415
0.16665265 -0.073073082 0.070562005
0.15365557 -0.080362432 0.086561054
0.16016026 -0.075426333 0.082091264
0.17143403 -0.055878032 0.069169827
0.16844931 -0.051237568 0.071246698
0.17344792 -0.058465485 0.066237688
0.17158006 -0.054895252 0.073893912
0.17504205 -0.052456859 0.06709449
0.15972979 -0.050159786 0.081087239
0.18053545 -0.053964615 0.049111329
0.17594355 -0.048523035 0.05932714
0.18375301 -0.051219076 0.038250506
0.18882418 -0.050977431 0.019143771
0.18789935 -0.051649693 0.016242493
0.18781696 -0.040597882 0.022755882
0.18243772 -0.029500894 0.027950263
0.19052906 -0.037038453 -0.015459565
0.18253951 -0.028167984 -0.02557441
0.18427981 -0.052278195 -0.036458224
0.18336415 -0.028819831 -0.022013268
0.18068473 -0.032723479 -0.037725344
0.17868786 -0.055383958 -0.054086015
0.17196348 -0.036553331 -0.059229977
0.16397978 -0.05961258 -0.079303294
0.16619702 -0.057791851 -0.076810271
0.16406 -0.075711317 -0.073485643
0.16845097 -0.073475249 -0.069756977
0.16959752 -0.076051868 -0.062298954
0.1494491 -0.084608302 -0.090363763
0.15839963 -0.068609379 -0.086427547
0.13758895 -0.093830243 -0.10122723
0.11588921 -0.09771774 -0.1103246
0.13116314 -0.10414389 -0.099817619
0.12778968 -0.10223413 -0.10559727
0.12788691 -0.11086997 -0.097445324
0.1341013 -0.10756157 -0.09314803
0.1036206 -0.1166338 -0.10873488
0.10962074 -0.12555495 -0.10073293
0.11137626 -0.12365677 -0.10114504
0.10646304 -0.12022795 -0.10824405
0.082364544 -0.1349685 -0.10363147
0.092819907 -0.14780243 -0.088086963
0.093684867 -0.14643203 -0.08910609
0.093046978 -0.13500425 -0.10344154
0.11047036 -0.12790065 -0.095889837
0.10900129 -0.1338854 -0.091456376
0.11178332 -0.13179716 -0.091356434
0.094663441 -0.12849909 -0.10562669
0.066470496 -0.1503616 -0.093164496
0.070074528 -0.1439366 -0.097856484
0.086696312 -0.15644388 -0.078919187
0.094431661 -0.14545661 -0.089456744
0.095336817 -0.14454281 -0.089837834
0.080808729 -0.14696796 -0.096356452
0.072998323 -0.13466251 -0.10401182
